ply
format ascii 1.0
comment PCL generated
element vertex 1433
property float x
property float y
property float z
element camera 0
property float view_px
property float view_py
property float view_pz
property float x_axisx
property float x_axisy
property float x_axisz
property float y_axisx
property float y_axisy
property float y_axisz
property float z_axisx
property float z_axisy
property float z_axisz
property float focal
property float scalex
property float scaley
property float centerx
property float centery
property int viewportx
property int viewporty
property float k1
property float k2
end_header
0.68956721 -0.16174828 1.0381596
0.68967032 -0.16195066 1.0364258
0.68899053 -0.16192463 1.0353396
0.68831074 -0.1618986 1.0342534
0.68763095 -0.16187258 1.0331671
0.6869511 -0.16184655 1.0320809
0.68627131 -0.16182052 1.0309947
0.68559152 -0.16179448 1.0299084
0.68491173 -0.16176845 1.0288222
0.68423194 -0.16174242 1.0277359
0.68355215 -0.16171639 1.0266497
0.68287235 -0.16169037 1.0255635
0.68219256 -0.16166434 1.0244772
0.68074191 -0.16141035 1.0240577
0.68006307 -0.16138434 1.0229731
0.67938417 -0.16135836 1.0218883
0.67716926 -0.16087662 1.0221461
0.67419088 -0.16016723 1.0230826
0.67351669 -0.16014142 1.0220053
0.67284244 -0.1601156 1.0209279
0.67216825 -0.16008978 1.0198506
0.67149401 -0.16006397 1.0187733
0.67081982 -0.16003814 1.0176959
0.67014557 -0.16001233 1.0166186
0.66795021 -0.15953135 1.0169077
0.66727781 -0.15950561 1.0158334
0.66584677 -0.15925236 1.0154451
0.66365975 -0.15877171 1.0157474
0.66223323 -0.15851863 1.0153667
0.66156459 -0.15849303 1.0142982
0.66089594 -0.15846741 1.0132298
0.65871912 -0.15798716 1.0135486
0.65729922 -0.15773433 1.0131781
0.65663338 -0.15770884 1.0121143
0.6544649 -0.1572289 1.0124464
0.6538009 -0.15720348 1.0113853
0.65313697 -0.15717806 1.0103244
0.65247297 -0.15715262 1.0092634
0.65180898 -0.1571272 1.0082024
0.65114498 -0.15710178 1.0071415
0.65048099 -0.15707636 1.0060804
0.64981699 -0.15705092 1.0050194
0.65064073 -0.15747938 1.0025387
0.64997488 -0.15745388 1.0014747
0.64930904 -0.15742838 1.0004108
0.64938426 -0.15762971 0.99863243
0.64871746 -0.15760419 0.997567
0.64952916 -0.15803216 0.99506694
0.64886051 -0.15800656 0.99399853
0.64819187 -0.15798096 0.99293011
0.64752322 -0.15795536 0.9918617
0.6475901 -0.15815638 0.99006999
0.64692056 -0.15813074 0.98900008
0.64771819 -0.15855819 0.98647767
0.64704674 -0.15853249 0.98540485
0.64637536 -0.15850678 0.98433197
0.64570391 -0.15848106 0.98325908
0.64576238 -0.15868175 0.98145401
0.64509004 -0.158656 0.9803797
0.6444177 -0.15863028 0.97930533
0.64519954 -0.15905713 0.97675765
0.64597774 -0.15948381 0.974204
0.64530164 -0.15945792 0.97312367
0.64534992 -0.15965822 0.97130227
0.64467287 -0.1596323 0.97022051
0.64544082 -0.16005862 0.96765053
0.64476198 -0.16003263 0.96656579
0.64408308 -0.16000663 0.96548104
0.64412391 -0.16020665 0.96364772
0.64488161 -0.16063257 0.96106148
0.64419997 -0.16060646 0.95997226
0.64423519 -0.16080627 0.95813
0.6435526 -0.16078013 0.9570393
0.6443001 -0.16120565 0.95443666
0.64361566 -0.16117944 0.95334297
0.64293116 -0.16115323 0.95224935
0.64224672 -0.16112703 0.95115566
0.6923005 -0.16313137 1.0424569
0.69162166 -0.16310537 1.0413721
0.69094276 -0.16307938 1.0402873
0.69104779 -0.16328362 1.0385565
0.690368 -0.16325758 1.0374702
0.68968821 -0.16323155 1.036384
0.68900841 -0.16320552 1.0352978
0.68832862 -0.16317949 1.0342115
0.68764883 -0.16315347 1.0331253
0.68696898 -0.16312744 1.032039
0.68628919 -0.1631014 1.0309528
0.68716228 -0.16353524 1.0285506
0.68648064 -0.16350915 1.0274614
0.68579894 -0.16348304 1.0263722
0.68357003 -0.16299728 1.0266078
0.68289024 -0.16297126 1.0255215
0.68221045 -0.16294523 1.0244353
0.68075979 -0.16268946 1.0240159
0.68008089 -0.16266346 1.0229312
0.67940205 -0.16263747 1.0218464
0.67718703 -0.16215225 1.0221044
0.67574292 -0.16189674 1.0216954
0.67353439 -0.16141178 1.0219637
0.67286021 -0.16138595 1.0208864
0.67218602 -0.16136013 1.019809
0.67151177 -0.16133432 1.0187317
0.67083752 -0.1613085 1.0176544
0.67016333 -0.16128269 1.0165771
0.66796786 -0.16079819 1.0168662
0.66729552 -0.16077247 1.0157919
0.66586441 -0.16051747 1.0154037
0.66367733 -0.16003332 1.0157062
0.66225082 -0.15977846 1.0153255
0.66158217 -0.15975286 1.0142571
0.65940344 -0.15926903 1.0145729
0.65873671 -0.15924351 1.0135075
0.65731674 -0.15898892 1.0131371
0.65665084 -0.15896343 1.0120732
0.65448236 -0.15847999 1.0124054
0.65381837 -0.15845457 1.0113444
0.65315443 -0.15842915 1.0102835
0.65249044 -0.15840371 1.0092225
0.65182644 -0.15837829 1.0081615
0.65116245 -0.15835287 1.0071006
0.65049845 -0.15832745 1.0060396
0.64983445 -0.15830201 1.0049787
0.65065825 -0.15873396 1.0024977
0.64999241 -0.15870847 1.0014336
0.64932656 -0.15868297 1.0003698
0.64940178 -0.15888606 0.99859136
0.64873499 -0.15886053 0.99752593
0.64954674 -0.159292 0.99502575
0.6488781 -0.1592664 0.99395728
0.64820945 -0.1592408 0.99288893
0.64754081 -0.1592152 0.99182045
0.64687216 -0.1591896 0.9907521
0.64693815 -0.15939234 0.98895884
0.64626861 -0.15936671 0.98788893
0.64559901 -0.15934107 0.98681903
0.64492947 -0.15931544 0.98574913
0.64572155 -0.15974617 0.98321772
0.64505011 -0.15972047 0.98214483
0.64510769 -0.15992287 0.98033822
0.64443535 -0.15989712 0.9792639
0.6452173 -0.16032748 0.97671604
0.64454305 -0.16030166 0.97563875
0.6453194 -0.16073178 0.97308207
0.64536768 -0.16093385 0.97126055
0.64469069 -0.16090792 0.97017878
0.6454587 -0.16133773 0.96760869
0.6447798 -0.16131175 0.96652395
0.64410096 -0.16128574 0.9654392
0.64414179 -0.16148753 0.96360588
0.643462 -0.1614615 0.96251959
0.64421791 -0.16189085 0.95993024
0.64353627 -0.16186476 0.95884103
0.64357054 -0.16206627 0.95699722
0.64288795 -0.16204013 0.95590651
0.64363366 -0.16246907 0.95330083
0.64294916 -0.16244286 0.95220715
0.64226472 -0.16241667 0.95111346
0.64158028 -0.16239046 0.95001984
0.69231838 -0.1644105 1.0424149
0.69163948 -0.1643845 1.0413302
0.69096065 -0.16435851 1.0402455
0.69028175 -0.16433251 1.0391607
0.69038588 -0.16453846 1.0374284
0.68970609 -0.16451243 1.0363421
0.6890263 -0.16448639 1.0352559
0.68834645 -0.16446036 1.0341697
0.68766665 -0.16443434 1.0330834
0.68698686 -0.16440831 1.0319972
0.68630707 -0.16438228 1.0309108
0.68718022 -0.16481961 1.0285087
0.68649852 -0.16479352 1.0274194
0.68581688 -0.16476741 1.0263302
0.68358791 -0.16427815 1.0265659
0.68290812 -0.16425213 1.0254797
0.68222833 -0.1642261 1.0243934
0.68154854 -0.16420007 1.0233072
0.68009877 -0.16394259 1.0228894
0.67941988 -0.1639166 1.0218046
0.67874104 -0.1638906 1.0207199
0.67576069 -0.16317061 1.0216538
0.67508459 -0.16314471 1.0205734
0.67287797 -0.16265632 1.0208449
0.67220372 -0.16263051 1.0197675
0.67152947 -0.16260469 1.0186902
0.67085528 -0.16257887 1.0176129
0.67018104 -0.16255306 1.0165355
0.66798556 -0.16206506 1.0168248
0.66731322 -0.16203934 1.0157504
0.66588205 -0.16178256 1.0153624
0.6652106 -0.16175684 1.0142895
0.6622684 -0.16103832 1.0152843
0.66159976 -0.16101272 1.0142159
0.65942103 -0.16052538 1.0145319
0.65875423 -0.16049986 1.0134664
0.65733421 -0.16024351 1.0130961
0.65666837 -0.16021802 1.0120322
0.65600252 -0.16019252 1.0109682
0.65383583 -0.15970565 1.0113035
0.6531719 -0.15968023 1.0102426
0.6525079 -0.1596548 1.0091816
0.65184391 -0.15962937 1.0081205
0.65117991 -0.15960395 1.0070596
0.65051591 -0.15957853 1.0059986
0.64985192 -0.1595531 1.0049376
0.65067577 -0.15998855 1.0024567
0.65000993 -0.15996306 1.0013926
0.64934403 -0.15993756 1.0003288
0.64941937 -0.16014241 0.9985503
0.64875257 -0.16011688 0.99748486
0.64808577 -0.16009134 0.99641943
0.64889568 -0.16052626 0.99391609
0.64822704 -0.16050066 0.99284768
0.64755839 -0.16047506 0.99177927
0.64688975 -0.16044946 0.99071085
0.6462211 -0.16042385 0.9896425
0.64628619 -0.1606283 0.98784769
0.64561665 -0.16060266 0.98677778
0.64494705 -0.16057703 0.98570788
0.64573926 -0.16101126 0.98317635
0.64506781 -0.16098556 0.98210347
0.64512539 -0.16118973 0.98029685
0.64445305 -0.16116399 0.97922248
0.645235 -0.16159785 0.97667456
0.64456081 -0.16157202 0.9755972
0.64533722 -0.16200565 0.9730404
0.6453855 -0.16220947 0.97121888
0.64470851 -0.16218354 0.97013706
0.64547652 -0.16261686 0.96756685
0.64479768 -0.16259088 0.96648216
0.64411879 -0.16256487 0.96539736
0.64343995 -0.16253889 0.96431261
0.64347988 -0.16274238 0.96247768
0.64280009 -0.16271634 0.96139145
0.6421203 -0.16269031 0.96030521
0.64287251 -0.16312303 0.95770979
0.64219087 -0.16309692 0.95662057
0.6422233 -0.16330013 0.95477378
0.64296716 -0.16373251 0.95216501
0.64228272 -0.16370632 0.95107132
0.6923362 -0.16568963 1.0423732
0.69165736 -0.16566363 1.0412884
0.69097847 -0.16563764 1.0402036
0.69029963 -0.16561164 1.0391189
0.68962073 -0.16558565 1.0380341
0.6889419 -0.16555965 1.0369494
0.68904418 -0.16576725 1.0352139
0.68836433 -0.16574122 1.0341277
0.68768454 -0.1657152 1.0330415
0.68700475 -0.16568917 1.0319552
0.68632495 -0.16566314 1.030869
0.6871981 -0.166104 1.0284667
0.68651646 -0.16607791 1.0273774
0.68583483 -0.16605181 1.0262883
0.68360579 -0.16555901 1.0265241
0.682926 -0.16553299 1.0254378
0.68224621 -0.16550696 1.0243516
0.68156636 -0.16548093 1.0232654
0.68011659 -0.16522172 1.0228475
0.67943776 -0.16519573 1.0217628
0.67722267 -0.16470349 1.0220209
0.67424411 -0.16397831 1.022958
0.67356986 -0.1639525 1.0218806
0.67289567 -0.16392668 1.0208033
0.67222148 -0.16390087 1.019726
0.67154723 -0.16387504 1.0186486
0.67087299 -0.16384922 1.0175713
0.6701988 -0.16382341 1.016494
0.66800326 -0.16333193 1.0167834
0.66733086 -0.16330618 1.015709
0.66589969 -0.16304769 1.015321
0.66522831 -0.16302197 1.0142481
0.66304302 -0.16253085 1.0145538
0.66161734 -0.16227256 1.0141747
0.66094869 -0.16224696 1.0131063
0.65877175 -0.1617562 1.0134254
0.65810496 -0.16173066 1.0123599
0.65668589 -0.16147262 1.0119911
0.65602005 -0.16144712 1.0109272
0.6553542 -0.16142163 1.0098633
0.65318936 -0.16093132 1.0102017
0.65252537 -0.16090588 1.0091407
0.65111369 -0.16064812 1.0087838
0.65045065 -0.16062273 1.0077243
0.65053338 -0.16082962 1.0059577
0.64986938 -0.16080418 1.0048968
0.65069324 -0.16124316 1.0024157
0.65002745 -0.16121766 1.0013516
0.64936155 -0.16119216 1.0002877
0.64943689 -0.16139875 0.99850923
0.64877009 -0.16137323 0.9974438
0.6481033 -0.16134769 0.99637836
0.64891326 -0.16178611 0.99387491
0.64824462 -0.16176051 0.99280649
0.64757597 -0.16173491 0.99173808
0.64690733 -0.16170931 0.99066973
0.64623868 -0.16168369 0.98960125
0.64630383 -0.1618899 0.98780644
0.64563423 -0.16186425 0.98673654
0.64496469 -0.16183862 0.98566663
0.6442951 -0.16181298 0.98459673
0.64508545 -0.16225068 0.9820621
0.64514309 -0.16245657 0.98025537
0.64447075 -0.16243085 0.97918105
0.64379835 -0.1624051 0.97810668
0.64457852 -0.16284238 0.97555566
0.64390433 -0.16281657 0.97447836
0.64467889 -0.16325365 0.97191846
0.64472634 -0.16345917 0.9700954
0.64404929 -0.16343324 0.96901357
0.6448155 -0.16387001 0.96644032
0.64413667 -0.163844 0.96535552
0.64345777 -0.16381802 0.96427077
0.64349777 -0.16402324 0.96243584
0.64281797 -0.1639972 0.96134961
0.64213818 -0.16397117 0.96026337
0.64289045 -0.16440742 0.95766783
0.64220876 -0.16438131 0.95657861
0.6422413 -0.16458628 0.9547317
0.64155871 -0.16456014 0.95364106
0.64230072 -0.16499595 0.95102918
0.69235408 -0.16696875 1.0423313
0.69167525 -0.16694275 1.0412465
0.69099635 -0.16691676 1.0401618
0.69031745 -0.16689076 1.039077
0.68963861 -0.16686477 1.0379922
0.68895972 -0.16683877 1.0369076
0.68828088 -0.16681278 1.0358227
0.68838221 -0.16702211 1.0340859
0.68770242 -0.16699609 1.0329996
0.68702263 -0.16697006 1.0319134
0.68634284 -0.16694403 1.030827
0.68566304 -0.16691799 1.0297408
0.6865344 -0.16736227 1.0273354
0.68585277 -0.16733617 1.0262462
0.68362367 -0.1668399 1.0264821
0.68294388 -0.16681388 1.0253959
0.68226409 -0.16678785 1.0243096
0.68158424 -0.16676182 1.0232234
0.68013448 -0.16650084 1.0228057
0.67945558 -0.16647485 1.021721
0.67724049 -0.1659791 1.0219792
0.67426181 -0.16524866 1.0229164
0.67358762 -0.16522285 1.0218391
0.67291337 -0.16519703 1.0207617
0.67223918 -0.16517122 1.0196844
0.67156494 -0.1651454 1.0186071
0.67089075 -0.16511957 1.0175298
0.6686933 -0.16462454 1.0178163
0.6680209 -0.16459879 1.016742
0.66734856 -0.16457304 1.0156677
0.66667622 -0.16454729 1.0145932
0.66524595 -0.16428706 1.0142068
0.66306061 -0.16379248 1.0145125
0.66163498 -0.16353242 1.0141335
0.66096634 -0.16350682 1.0130651
0.66029769 -0.16348122 1.0119966
0.65812254 -0.16298701 1.0123188
0.65745574 -0.16296148 1.0112534
0.65603757 -0.16270171 1.0108862
0.65537173 -0.16267622 1.0098222
0.65320683 -0.16218241 1.0101607
0.65254283 -0.16215697 1.0090997
0.65113115 -0.16189747 1.008743
0.65046805 -0.16187207 1.0076835
0.65055084 -0.16208071 1.0059168
0.64988685 -0.16205527 1.0048559
0.65071076 -0.16249774 1.0023745
0.65004492 -0.16247225 1.0013106
0.64937907 -0.16244675 1.0002466
0.64871323 -0.16242126 0.9991827
0.64878762 -0.16262957 0.99740267
0.64812088 -0.16260403 0.99633729
0.64745408 -0.16257851 0.9952718
0.6482622 -0.16302037 0.99276531
0.64759356 -0.16299477 0.99169689
0.64692491 -0.16296917 0.99062848
0.64625627 -0.16294356 0.98956007
0.64558762 -0.16291796 0.98849165
0.64565188 -0.16312587 0.98669529
0.64498228 -0.16310024 0.98562539
0.64431274 -0.1630746 0.98455548
0.6451031 -0.16351578 0.98202074
0.64516073 -0.16372344 0.980214
0.64448839 -0.16369772 0.97913963
0.64381605 -0.16367197 0.97806525
0.64314371 -0.16364622 0.97699094
0.64392203 -0.16408692 0.97443682
0.64469671 -0.16452751 0.9718768
0.64402062 -0.16450162 0.97079647
0.64406711 -0.16470885 0.96897191
0.64483339 -0.16514912 0.96639848
0.64415449 -0.16512312 0.96531373
0.64347565 -0.16509713 0.96422899
0.64351565 -0.16530412 0.96239394
0.64283586 -0.16527809 0.9613077
0.64215606 -0.16525206 0.96022147
0.64290839 -0.16569178 0.95762581
0.6422267 -0.16566567 0.95653659
0.64225924 -0.1658724 0.95468962
0.64157665 -0.16584626 0.95359898
0.64231879 -0.16628559 0.95098698
0.6923719 -0.16824786 1.0422895
0.69169307 -0.16822186 1.0412047
0.69101423 -0.16819587 1.04012
0.69033533 -0.16816987 1.0390352
0.68965644 -0.16814388 1.0379505
0.6889776 -0.16811788 1.0368657
0.68829876 -0.16809189 1.0357809
0.68840009 -0.168303 1.034044
0.6877203 -0.16827698 1.0329578
0.68704051 -0.16825095 1.0318716
0.68636072 -0.16822492 1.0307852
0.68568093 -0.16819888 1.029699
0.68655235 -0.16864666 1.0272934
0.68587065 -0.16862056 1.0262042
0.68364155 -0.16812079 1.0264403
0.68296176 -0.16809477 1.025354
0.68228191 -0.16806874 1.0242678
0.68160212 -0.1680427 1.0231816
0.68015236 -0.16777995 1.022764
0.6779353 -0.16728067 1.0230193
0.67725825 -0.16725475 1.0219376
0.67581403 -0.16699222 1.0215287
0.67360538 -0.16649324 1.0217975
0.67293113 -0.16646741 1.0207202
0.67225695 -0.1664416 1.0196429
0.6715827 -0.16641578 1.0185657
0.67090851 -0.16638996 1.0174882
0.66871095 -0.16589138 1.0177748
0.66803861 -0.16586563 1.0167005
0.66736627 -0.16583991 1.0156262
0.66669387 -0.16581416 1.0145519
0.66526359 -0.16555217 1.0141654
0.66307825 -0.16505407 1.0144713
0.66240865 -0.16502844 1.0134014
0.66098386 -0.16476667 1.0130239
0.66031528 -0.16474107 1.0119555
0.65814006 -0.16424336 1.0122777
0.65747327 -0.16421783 1.0112123
0.65605509 -0.16395631 1.0108452
0.65538925 -0.16393082 1.0097811
0.65322429 -0.16343351 1.0101199
0.65256029 -0.16340807 1.0090588
0.6518963 -0.16338265 1.0079979
0.6512323 -0.16335723 1.0069369
0.65056831 -0.16333181 1.0058758
0.64990431 -0.16330637 1.0048149
0.65072829 -0.16375235 1.0023335
0.65006244 -0.16372685 1.0012696
0.6493966 -0.16370136 1.0002056
0.64873075 -0.16367586 0.99914169
0.64806491 -0.16365036 0.99807775
0.6481384 -0.16386038 0.99629617
0.64747161 -0.16383485 0.99523073
0.64680481 -0.16380931 0.9941653
0.64613807 -0.16378379 0.99309987
0.6469425 -0.16422902 0.99058729
0.64627385 -0.16420341 0.98951888
0.64560521 -0.16417781 0.98845047
0.64566946 -0.16438746 0.98665398
0.64499992 -0.16436183 0.98558408
0.64433032 -0.16433619 0.98451424
0.6451208 -0.16478088 0.98197937
0.64517844 -0.16499031 0.98017251
0.6445061 -0.16496456 0.9790982
0.64383376 -0.16493881 0.97802383
0.64316136 -0.16491306 0.97694945
0.64393979 -0.16535731 0.97439528
0.64471447 -0.16580138 0.97183514
0.64403838 -0.16577549 0.97075486
0.64408493 -0.1659845 0.96893018
0.64485127 -0.16642824 0.96635664
0.64417237 -0.16640224 0.96527189
0.64349347 -0.16637625 0.96418715
0.64353353 -0.16658501 0.96235204
0.64285374 -0.16655898 0.9612658
0.64217395 -0.16653295 0.96017957
0.64292628 -0.16697617 0.95758379
0.64224464 -0.16695006 0.95649457
0.64227718 -0.16715854 0.9546476
0.64159459 -0.16713241 0.9535569
0.640912 -0.16710627 0.95246625
0.69238979 -0.16952701 1.0422477
0.69171095 -0.16950101 1.041163
0.69103205 -0.16947502 1.0400782
0.69035316 -0.16944902 1.0389934
0.68967432 -0.16942303 1.0379087
0.68899542 -0.16939703 1.0368239
0.68831658 -0.16937104 1.0357392
0.68841797 -0.16958386 1.0340021
0.68773818 -0.16955784 1.0329158
0.68705839 -0.16953181 1.0318296
0.6863786 -0.16950577 1.0307434
0.68569881 -0.16947974 1.0296571
0.68501902 -0.16945371 1.0285709
0.68433923 -0.16942768 1.0274847
0.68365943 -0.16940165 1.0263984
0.68297964 -0.16937563 1.0253122
0.68229979 -0.1693496 1.024226
0.68084908 -0.1690851 1.0238068
0.68017018 -0.1690591 1.022722
0.67795306 -0.16855629 1.0229776
0.67727607 -0.16853036 1.0218959
0.67583179 -0.16826609 1.0214871
0.67515576 -0.16824019 1.0204068
0.6729489 -0.16773777 1.0206788
0.67227465 -0.16771196 1.0196013
0.6716004 -0.16768613 1.0185241
0.67092621 -0.16766031 1.0174468
0.66872865 -0.16715825 1.0177335
0.66805631 -0.1671325 1.0166591
0.66738391 -0.16710675 1.0155847
0.66671157 -0.167081 1.0145104
0.66528124 -0.16681729 1.014124
0.66309583 -0.16631569 1.01443
0.66242629 -0.16629006 1.0133601
0.6610015 -0.1660265 1.0129827
0.66033286 -0.1660009 1.0119143
0.65815759 -0.1654997 1.0122366
0.65749079 -0.16547418 1.0111712
0.65607256 -0.1652109 1.0108042
0.65540671 -0.16518541 1.0097401
0.65324175 -0.16468459 1.0100789
0.65257776 -0.16465916 1.0090179
0.65191376 -0.16463374 1.007957
0.65124977 -0.16460831 1.006896
0.65058577 -0.16458289 1.0058351
0.64992177 -0.16455746 1.0047741
0.65074581 -0.16500694 1.0022925
0.65007997 -0.16498144 1.0012286
0.64941412 -0.16495594 1.0001646
0.64874828 -0.16493045 0.99910069
0.64808244 -0.16490495 0.99803674
0.64815593 -0.16511673 0.9962551
0.64748913 -0.1650912 0.99518967
0.64682239 -0.16506566 0.99412417
0.6461556 -0.16504014 0.9930588
0.64696008 -0.16548885 0.99054611
0.64629143 -0.16546324 0.98947769
0.64562279 -0.16543764 0.98840928
0.6456871 -0.16564909 0.98661274
0.6450175 -0.16562346 0.98554283
0.64434797 -0.16559781 0.98447299
0.64513844 -0.16604601 0.981938
0.64519614 -0.16625714 0.98013115
0.6445238 -0.16623142 0.97905678
0.6438514 -0.16620567 0.9779824
0.64463174 -0.16665347 0.97543108
0.6439575 -0.16662766 0.97435373
0.64328331 -0.16660184 0.97327638
0.6440562 -0.16704936 0.97071314
0.64338011 -0.16702347 0.96963286
0.64270401 -0.16699758 0.96855259
0.64274871 -0.16720827 0.96672487
0.64207172 -0.16718234 0.96564311
0.64283246 -0.16762939 0.96306056
0.64287162 -0.16783984 0.96122396
0.64219183 -0.16781381 0.96013772
0.64294422 -0.16826056 0.95754182
0.64226258 -0.16823445 0.95645261
0.64229512 -0.16844468 0.95460558
0.64161259 -0.16841854 0.95351487
0.64093 -0.1683924 0.95242417
0.69240767 -0.17080612 1.0422058
0.69172877 -0.17078012 1.041121
0.69104993 -0.17075413 1.0400363
0.69037104 -0.17072813 1.0389516
0.6896922 -0.17070214 1.0378668
0.6890133 -0.17067614 1.036782
0.68833447 -0.17065015 1.0356972
0.68843585 -0.17086475 1.0339602
0.68775606 -0.17083873 1.032874
0.68707627 -0.1708127 1.0317878
0.68639648 -0.17078666 1.0307014
0.68571669 -0.17076063 1.0296152
0.6850369 -0.1707346 1.0285289
0.68435711 -0.17070857 1.0274427
0.68367732 -0.17068253 1.0263565
0.68299752 -0.17065652 1.0252702
0.68231767 -0.17063048 1.024184
0.6808669 -0.17036422 1.023765
0.68018806 -0.17033821 1.0226803
0.67797089 -0.1698319 1.0229359
0.6772939 -0.16980597 1.0218542
0.67584962 -0.16953996 1.0214455
0.67517352 -0.16951406 1.0203652
0.6729666 -0.16900812 1.0206372
0.67229241 -0.16898231 1.0195599
0.67161816 -0.16895649 1.0184824
0.66941869 -0.16845086 1.0187664
0.66874635 -0.16842511 1.0176921
0.66731322 -0.16815951 1.0173013
0.66664177 -0.16813381 1.0162284
0.66597033 -0.16810811 1.0151556
0.66378301 -0.16760293 1.0154587
0.66311342 -0.16757728 1.0143888
0.66244388 -0.16755165 1.0133189
0.66101909 -0.16728637 1.0129415
0.66035044 -0.16726077 1.011873
0.65817511 -0.16675605 1.0121956
0.65750831 -0.16673052 1.0111301
0.65684158 -0.16670498 1.0100646
0.65542424 -0.16644 1.0096991
0.65475839 -0.1664145 1.0086353
0.65259522 -0.16591026 1.0089771
0.65193123 -0.16588484 1.007916
0.65126723 -0.16585942 1.006855
0.65060323 -0.16583399 1.005794
0.64993924 -0.16580856 1.0047331
0.64927524 -0.16578314 1.0036721
0.65009749 -0.16623603 1.0011876
0.64794731 -0.16573229 1.0015502
0.64728332 -0.16570686 1.0004892
0.64809996 -0.16615954 0.99799567
0.64743406 -0.16613404 0.99693173
0.64750665 -0.16634755 0.99514854
0.64683992 -0.16632201 0.99408311
0.64617312 -0.16629648 0.99301767
0.64697766 -0.16674872 0.99050492
0.64630902 -0.1667231 0.98943651
0.64564043 -0.1666975 0.98836809
0.64570469 -0.16691068 0.98657149
0.64503509 -0.16688505 0.98550159
0.64436555 -0.1668594 0.98443168
0.64515609 -0.1673111 0.98189664
0.64521384 -0.16752401 0.98008966
0.64454144 -0.16749829 0.97901535
0.6438691 -0.16747254 0.97794098
0.64319676 -0.16744679 0.9768666
0.64252442 -0.16742104 0.97579229
0.64330107 -0.16787219 0.97323489
0.64407396 -0.16832323 0.97067153
0.64339787 -0.16829734 0.96959126
0.64272183 -0.16827145 0.96851093
0.64276654 -0.16848388 0.96668315
0.64208949 -0.16845796 0.96560138
0.64285034 -0.16890851 0.96301872
0.64217144 -0.16888252 0.96193397
0.64149261 -0.16885652 0.96084923
0.64152986 -0.16906866 0.95900959
0.64228052 -0.16951883 0.95641065
0.64159882 -0.16949274 0.95532137
0.64163053 -0.16970466 0.95347279
0.64094794 -0.16967852 0.95238209
0.69242549 -0.17208524 1.042164
0.69174665 -0.17205924 1.0410793
0.69106776 -0.17203325 1.0399945
0.69038892 -0.17200725 1.0389097
0.68971002 -0.17198126 1.037825
0.68903118 -0.17195526 1.0367403
0.68835229 -0.17192927 1.0356555
0.68767345 -0.17190327 1.0345707
0.68777394 -0.17211962 1.032832
0.68631572 -0.17185128 1.0324012
0.68563682 -0.17182529 1.0313165
0.68573457 -0.17204152 1.0295733
0.68505478 -0.17201549 1.0284871
0.68437499 -0.17198946 1.0274009
0.68292135 -0.17172131 1.0269774
0.68224251 -0.17169532 1.0258927
0.68156362 -0.17166932 1.0248079
0.68088478 -0.17164333 1.0237231
0.68020588 -0.17161733 1.0226384
0.67798871 -0.17110753 1.0228941
0.67731172 -0.1710816 1.0218124
0.67586738 -0.17081381 1.0214038
0.67519128 -0.17078792 1.0203235
0.67298436 -0.1702785 1.0205956
0.67231011 -0.1702527 1.0195184
0.67163593 -0.17022687 1.018441
0.6694364 -0.16971773 1.0187249
0.668764 -0.16969198 1.0176506
0.66733086 -0.16942462 1.0172598
0.66665941 -0.16939892 1.016187
0.66598803 -0.16937321 1.0151142
0.66380066 -0.16886453 1.0154175
0.66313106 -0.16883889 1.0143476
0.66246146 -0.16881326 1.0132776
0.66103667 -0.16854621 1.0129004
0.66036803 -0.16852061 1.0118319
0.65819269 -0.1680124 1.0121545
0.6575259 -0.16798687 1.0110891
0.6568591 -0.16796133 1.0100236
0.65544176 -0.16769458 1.0096581
0.65327662 -0.16718677 1.0099971
0.65261269 -0.16716133 1.0089362
0.65194869 -0.16713591 1.0078752
0.65128469 -0.16711049 1.0068142
0.6506207 -0.16708507 1.0057532
0.6499567 -0.16705963 1.0046922
0.64929271 -0.16703421 1.0036312
0.65011495 -0.16749062 1.0011466
0.64796478 -0.16698337 1.0015093
0.64730078 -0.16695793 1.0004482
0.64811742 -0.16741413 0.99795467
0.64745158 -0.16738863 0.99689072
0.64752424 -0.1676039 0.99510747
0.64685744 -0.16757835 0.99404204
0.6461907 -0.16755283 0.99297661
0.64552391 -0.1675273 0.99191117
0.64485711 -0.16750176 0.99084574
0.64565796 -0.16795735 0.98832691
0.64572233 -0.16817228 0.98653024
0.64505273 -0.16814665 0.98546034
0.64584517 -0.16860192 0.98292816
0.64517373 -0.16857621 0.98185527
0.64523149 -0.16879088 0.9800483
0.64455914 -0.16876516 0.97897393
0.6438868 -0.16873941 0.97789955
0.6432144 -0.16871366 0.97682524
0.64254206 -0.16868791 0.97575086
0.64331877 -0.16914257 0.97319329
0.64264458 -0.16911677 0.97211599
0.64341569 -0.16957119 0.9695496
0.64273959 -0.16954531 0.96846926
0.6420635 -0.16951942 0.96738899
0.64138746 -0.16949353 0.96630871
0.64143032 -0.16970766 0.9644779
0.64075333 -0.16968174 0.96339613
0.64151049 -0.17013563 0.96080738
0.64154774 -0.17034955 0.95896769
0.64086795 -0.17032352 0.95788145
0.64161676 -0.17077713 0.95527935
0.64164847 -0.17099079 0.95343077
0.64096588 -0.17096466 0.95234007
0.69244337 -0.17336437 1.0421221
0.69176447 -0.17333837 1.0410374
0.69108564 -0.17331238 1.0399526
0.69040674 -0.17328638 1.038868
0.6897279 -0.17326039 1.0377831
0.68904901 -0.17323439 1.0366983
0.68837017 -0.1732084 1.0356137
0.68769127 -0.1731824 1.034529
0.68779182 -0.17340049 1.0327902
0.68633354 -0.17313041 1.0323594
0.6856547 -0.17310442 1.0312746
0.68575245 -0.17332239 1.0295315
0.68507266 -0.17329636 1.0284452
0.68439287 -0.17327033 1.027359
0.68293923 -0.17300044 1.0269356
0.68226033 -0.17297445 1.0258509
0.6815815 -0.17294845 1.0247661
0.67936051 -0.17243499 1.0250161
0.67868352 -0.17240906 1.0239342
0.67723733 -0.17213947 1.0235227
0.67656124 -0.17211358 1.0224425
0.67588514 -0.1720877 1.0213622
0.67367631 -0.17157468 1.0216315
0.67300206 -0.17154886 1.0205541
0.67232788 -0.17152305 1.0194768
0.67012638 -0.17101032 1.0197579
0.66945404 -0.17098457 1.0186836
0.66801995 -0.17071545 1.0182914
0.6673485 -0.17068973 1.0172186
0.66667712 -0.17066403 1.0161457
0.66600567 -0.17063832 1.0150728
0.66381824 -0.17012613 1.0153761
0.66239148 -0.16985729 1.0149959
0.6617229 -0.16983168 1.0139275
0.66105425 -0.16980608 1.0128591
0.66038561 -0.16978048 1.0117908
0.65821022 -0.16926873 1.0121133
0.65754342 -0.1692432 1.011048
0.65687662 -0.16921766 1.0099826
0.65545928 -0.16894919 1.0096171
0.65329415 -0.16843784 1.0099561
0.65263015 -0.1684124 1.0088952
0.65196615 -0.16838698 1.0078342
0.65055525 -0.16811876 1.0074792
0.64989221 -0.16809337 1.0064197
0.64922917 -0.16806798 1.0053602
0.64931017 -0.16828528 1.0035903
0.64864618 -0.16825986 1.0025294
0.64723998 -0.16799182 1.0021818
0.64657694 -0.16796643 1.0011222
0.64665425 -0.16818358 0.99934638
0.64599025 -0.16815816 0.99828541
0.64680326 -0.16861774 0.99578571
0.64687496 -0.16883469 0.99400097
0.64620823 -0.16880916 0.99293554
0.64554143 -0.16878363 0.99187011
0.64487463 -0.16875809 0.99080467
0.6456756 -0.16921721 0.98828566
0.64500695 -0.16919161 0.98721731
0.64507037 -0.16940825 0.98541909
0.64440078 -0.1693826 0.98434919
0.64519143 -0.16984132 0.98181391
0.64524919 -0.17005774 0.98000681
0.64457685 -0.17003199 0.9789325
0.64390445 -0.17000625 0.97785813
0.64323211 -0.1699805 0.97678375
0.64255977 -0.16995475 0.97570944
0.64333647 -0.17041293 0.9731518
0.64266229 -0.17038712 0.97207445
0.64198804 -0.1703613 0.9709971
0.64275736 -0.17081919 0.96842766
0.64208132 -0.17079331 0.96734732
0.64140522 -0.17076741 0.96626705
0.64072913 -0.17074153 0.96518672
0.64005309 -0.17071564 0.96410644
0.6400941 -0.17093143 0.96227264
0.64084947 -0.17138878 0.9596808
0.64088583 -0.17160439 0.95783961
0.64020604 -0.17157838 0.95675331
0.64166641 -0.17227693 0.95338869
0.64098382 -0.17225079 0.95229799
0.69324809 -0.17488959 1.0414382
0.6925683 -0.17486358 1.040352
0.69110346 -0.17459151 1.0399108
0.69042462 -0.17456551 1.0388261
0.68974572 -0.17453952 1.0377413
0.68906689 -0.17451352 1.0366566
0.68838799 -0.17448753 1.0355718
0.68770915 -0.17446153 1.034487
0.68703026 -0.17443554 1.0334023
0.68635142 -0.17440954 1.0323176
0.68567252 -0.17438355 1.0312328
0.68499368 -0.17435755 1.030148
0.68431479 -0.17433156 1.0290632
0.68363595 -0.17430556 1.0279785
0.68295705 -0.17427957 1.0268939
0.68227822 -0.17425358 1.025809
0.68159932 -0.17422758 1.0247242
0.67937833 -0.17371061 1.0249743
0.67870134 -0.17368469 1.0238925
0.67725509 -0.17341332 1.0234811
0.676579 -0.17338744 1.0224009
0.6743682 -0.17287086 1.0226672
0.67369401 -0.17284505 1.0215899
0.67301983 -0.17281923 1.0205126
0.67081648 -0.1723029 1.0207908
0.67014408 -0.17227718 1.0197165
0.66947174 -0.17225143 1.0186422
0.66803759 -0.17198056 1.01825
0.66736621 -0.17195484 1.0171771
0.66669476 -0.17192914 1.0161042
0.66602331 -0.17190343 1.0150313
0.66383582 -0.17138773 1.0153348
0.66240913 -0.17111713 1.0149547
0.66174048 -0.17109151 1.0138863
0.66107184 -0.17106591 1.0128179
0.66040319 -0.17104031 1.0117495
0.65822774 -0.17052509 1.0120723
0.65756094 -0.17049956 1.0110068
0.65614265 -0.17022927 1.01064
0.65547681 -0.17020378 1.0095761
0.65331155 -0.16968894 1.0099154
0.65264761 -0.1696635 1.0088544
0.65123576 -0.16939348 1.0084978
0.65057272 -0.16936809 1.0074384
0.64990968 -0.1693427 1.0063789
0.64924663 -0.16931731 1.0053194
0.64858353 -0.16929191 1.0042598
0.64792049 -0.16926652 1.0032004
0.64725745 -0.16924115 1.0021409
0.64659435 -0.16921575 1.0010815
0.6459313 -0.16919036 1.0000219
0.64600772 -0.16940926 0.99824452
0.64534372 -0.16938384 0.99718356
0.64615494 -0.16984683 0.99468076
0.6454891 -0.16982134 0.99361682
0.64482325 -0.16979584 0.99255288
0.64489216 -0.17001446 0.99076355
0.64569318 -0.17047705 0.98824447
0.64502454 -0.17045145 0.98717606
0.64508796 -0.17066985 0.98537785
0.64441836 -0.17064421 0.98430794
0.64520907 -0.17110643 0.98177254
0.64526689 -0.17132458 0.97996545
0.64459449 -0.17129886 0.97889107
0.64392215 -0.17127311 0.9778167
0.64324981 -0.17124736 0.97674239
0.64257747 -0.17122161 0.97566801
0.64335424 -0.1716833 0.97311026
0.64267999 -0.17165749 0.9720329
0.6420058 -0.17163166 0.97095561
0.64133155 -0.17160586 0.96987826
0.64065737 -0.17158003 0.96880096
0.63998312 -0.17155422 0.96772361
0.64074689 -0.17201538 0.96514511
0.64007086 -0.1719895 0.96406478
0.64011192 -0.17220706 0.96223092
0.64086729 -0.17266791 0.95963895
0.64090371 -0.17288527 0.95779771
0.64022392 -0.17285925 0.95671141
0.64168435 -0.17356306 0.95334661
0.64100176 -0.17353693 0.95225596
0.69326597 -0.17617047 1.0413964
0.69180018 -0.17589663 1.0409538
0.69112134 -0.17587064 1.0398691
0.69044244 -0.17584464 1.0387843
0.68976361 -0.17581865 1.0376995
0.68908471 -0.17579265 1.0366148
0.68840587 -0.17576666 1.03553
0.68772697 -0.17574066 1.0344453
0.68704814 -0.17571467 1.0333605
0.68636924 -0.17568867 1.0322757
0.6856904 -0.17566268 1.031191
0.68501151 -0.17563668 1.0301062
0.68433267 -0.17561069 1.0290215
0.68365377 -0.17558469 1.0279367
0.68297493 -0.1755587 1.0268519
0.68229604 -0.17553271 1.0257672
0.6816172 -0.17550671 1.0246825
0.67939615 -0.17498621 1.0249326
0.6787191 -0.17496029 1.0238508
0.67727286 -0.17468719 1.0234394
0.67506015 -0.17416705 1.023703
0.67438596 -0.17414123 1.0226257
0.67371172 -0.17411542 1.0215483
0.67150646 -0.17359552 1.0218238
0.67083412 -0.17356977 1.0207493
0.67016178 -0.17354405 1.019675
0.66948944 -0.1735183 1.0186007
0.66881704 -0.17349255 1.0175264
0.66738385 -0.17321995 1.0171359
0.6667124 -0.17319424 1.016063
0.66452307 -0.17267497 1.0163636
0.66385347 -0.17264934 1.0152936
0.66242665 -0.17237698 1.0149136
0.66175807 -0.17235138 1.0138451
0.66108942 -0.17232576 1.0127767
0.65891206 -0.17180698 1.0130967
0.65824527 -0.17178144 1.0120313
0.65757847 -0.17175591 1.0109658
0.65616018 -0.17148387 1.010599
0.65399301 -0.17096545 1.0109353
0.65332907 -0.17094003 1.0098743
0.65191627 -0.1706682 1.0095165
0.65125322 -0.17064282 1.0084569
0.65059018 -0.17061743 1.0073975
0.64992708 -0.17059204 1.006338
0.64926404 -0.17056665 1.0052786
0.648601 -0.17054126 1.0042191
0.64793795 -0.17051587 1.0031595
0.64727485 -0.17049049 1.0021
0.64661181 -0.1704651 1.0010406
0.64594877 -0.17043971 0.99998105
0.64602518 -0.17066035 0.99820364
0.64536119 -0.17063493 0.99714261
0.64617246 -0.17110144 0.99463975
0.64550656 -0.17107594 0.99357581
0.64484072 -0.17105044 0.99251187
0.64490974 -0.1712708 0.99072248
0.64571077 -0.1717369 0.98820329
0.64504212 -0.1717113 0.98713487
0.64510554 -0.17193146 0.98533654
0.64589816 -0.17239724 0.98280406
0.64522672 -0.17237154 0.98173118
0.64528453 -0.17259145 0.97992396
0.64461219 -0.17256573 0.97884965
0.64393985 -0.17253998 0.97777528
0.64326745 -0.17251423 0.9767009
0.64259511 -0.17248848 0.97562659
0.643372 -0.17295367 0.97306871
0.64269775 -0.17292786 0.97199142
0.6420235 -0.17290203 0.97091407
0.64134932 -0.17287622 0.96983671
0.64067513 -0.1728504 0.96875942
0.64000088 -0.17282459 0.96768206
0.64076471 -0.17328925 0.96510339
0.64008862 -0.17326337 0.96402311
0.64012975 -0.17348266 0.9621892
0.64088517 -0.17394704 0.95959717
0.64092159 -0.17416614 0.9577558
0.64167053 -0.17463027 0.95515341
0.64098889 -0.17460416 0.95406419
0.64101976 -0.17482306 0.95221388
0.6924969 -0.17720175 1.0419967
0.69181806 -0.17717575 1.0409119
0.69113916 -0.17714976 1.0398272
0.69046032 -0.17712376 1.0387424
0.68978143 -0.17709777 1.0376577
0.68910259 -0.17707177 1.0365729
0.68842369 -0.17704578 1.0354881
0.68774486 -0.17701977 1.0344034
0.68706596 -0.17699379 1.0333186
0.68638712 -0.17696778 1.032234
0.68570822 -0.1769418 1.0311491
0.68502939 -0.17691579 1.0300643
0.68435049 -0.17688981 1.0289797
0.68367165 -0.1768638 1.0278949
0.68299276 -0.17683782 1.0268102
0.68231392 -0.17681183 1.0257254
0.68163502 -0.17678583 1.0246406
0.67941391 -0.17626183 1.0248909
0.67796671 -0.17598695 1.0244781
0.67729068 -0.17596106 1.0233978
0.67507792 -0.17543741 1.0236614
0.67440367 -0.17541158 1.0225841
0.67372948 -0.17538577 1.0215068
0.67152417 -0.17486238 1.0217824
0.67085183 -0.17483664 1.020708
0.67017943 -0.17481089 1.0196337
0.66950709 -0.17478514 1.0185592
0.66883475 -0.17475939 1.0174849
0.66740149 -0.17448504 1.0170944
0.66673005 -0.17445934 1.0160215
0.66454065 -0.17393658 1.0163224
0.66387105 -0.17391095 1.0152524
0.66244429 -0.17363684 1.0148723
0.66177565 -0.17361124 1.013804
0.65959638 -0.17308885 1.0141211
0.65892959 -0.17306332 1.0130556
0.65826279 -0.17303778 1.0119902
0.65684348 -0.17276396 1.011622
0.65617764 -0.17273846 1.010558
0.65401047 -0.17221655 1.0108944
0.65259677 -0.17194293 1.0105351
0.65193373 -0.17191754 1.0094757
0.65127069 -0.17189217 1.0084162
0.65060759 -0.17186677 1.0073566
0.64994454 -0.17184138 1.0062971
0.6492815 -0.17181599 1.0052377
0.6486184 -0.1717906 1.0041782
0.64795536 -0.17176521 1.0031188
0.64729232 -0.17173983 1.0020592
0.64662927 -0.17171444 1.0009997
0.64596617 -0.17168905 0.99994022
0.64604264 -0.17191145 0.99816269
0.64537865 -0.17188603 0.99710172
0.64618993 -0.17235602 0.99459875
0.64552408 -0.17233053 0.9935348
0.64485824 -0.17230503 0.9924708
0.64492726 -0.17252715 0.99068141
0.64426047 -0.17250162 0.98961598
0.6450597 -0.17297116 0.98709369
0.64439106 -0.17294556 0.98602527
0.64445359 -0.17316742 0.98422545
0.64524442 -0.17363663 0.98168981
0.64457297 -0.17361091 0.98061693
0.6446299 -0.17383257 0.97880822
0.6439575 -0.17380682 0.97773385
0.64328516 -0.17378107 0.97665954
0.64261281 -0.17375532 0.97558516
0.6433897 -0.17422402 0.97302717
0.64271551 -0.17419821 0.97194982
0.64204127 -0.17417239 0.97087252
0.64136702 -0.17414658 0.96979517
0.64069283 -0.17412075 0.96871787
0.64001864 -0.17409495 0.96764052
0.64078248 -0.17456312 0.96506178
0.64010638 -0.17453724 0.96398145
0.64014751 -0.17475827 0.96214747
0.640903 -0.17522615 0.95955533
0.64093947 -0.17544703 0.9577139
0.64025968 -0.17542101 0.95662767
0.64100683 -0.17588855 0.95402217
0.64032513 -0.17586245 0.95293295
0.64035511 -0.17608307 0.95108116
0.69251478 -0.17848088 1.0419549
0.69183594 -0.17845488 1.0408702
0.69115704 -0.17842889 1.0397854
0.69047815 -0.17840289 1.0387006
0.68979931 -0.1783769 1.0376158
0.68912041 -0.1783509 1.0365311
0.68844157 -0.17832491 1.0354464
0.68776268 -0.17829891 1.0343616
0.68708384 -0.17827292 1.0332768
0.686405 -0.17824692 1.0321921
0.68572611 -0.17822093 1.0311073
0.68504721 -0.17819493 1.0300226
0.68436837 -0.17816894 1.0289378
0.68368948 -0.17814294 1.027853
0.68301064 -0.17811695 1.0267683
0.68233174 -0.17809096 1.0256835
0.6816529 -0.17806496 1.0245988
0.67943174 -0.17753747 1.0248492
0.67798454 -0.17726082 1.0244365
0.67576987 -0.17673358 1.0246972
0.67509562 -0.17670777 1.0236199
0.67442143 -0.17668195 1.0225426
0.67374724 -0.17665614 1.0214653
0.67154187 -0.17612922 1.0217409
0.67086953 -0.17610347 1.0206666
0.67019713 -0.17607775 1.0195922
0.66952479 -0.176052 1.0185179
0.66885245 -0.17602625 1.0174434
0.66741914 -0.17575015 1.017053
0.66522783 -0.17522381 1.0173509
0.66455823 -0.17519817 1.0162811
0.66313052 -0.17492229 1.0158995
0.66246188 -0.17489669 1.0148311
0.66179323 -0.17487107 1.0137627
0.65961391 -0.17434518 1.0140799
0.65894711 -0.17431965 1.0130146
0.65828037 -0.17429411 1.0119491
0.65686101 -0.17401855 1.0115809
0.65619516 -0.17399305 1.0105169
0.65327728 -0.17321765 1.0115538
0.65111476 -0.17269243 1.0118978
0.65045357 -0.1726671 1.0108413
0.64979237 -0.17264178 1.0097847
0.65062505 -0.1731161 1.0073159
0.64996201 -0.17309071 1.0062563
0.64780879 -0.17256583 1.0066152
0.64714754 -0.17254052 1.0055586
0.64648634 -0.1725152 1.0045021
0.64582515 -0.17248988 1.0034456
0.64664668 -0.17296377 1.0009588
0.64598364 -0.17293838 0.99989933
0.64532059 -0.17291299 0.99883986
0.64539611 -0.17313711 0.99706078
0.64620745 -0.17361061 0.99455768
0.64554161 -0.17358512 0.99349374
0.64487576 -0.17355962 0.99242979
0.64494479 -0.17378348 0.99064028
0.64427799 -0.17375796 0.98957491
0.64507729 -0.17423101 0.9870525
0.64440864 -0.17420541 0.98598409
0.64374 -0.17417981 0.98491567
0.64526206 -0.17490174 0.98164845
0.64459062 -0.17487602 0.98057556
0.64464754 -0.17509943 0.9787668
0.6439752 -0.17507368 0.97769243
0.64330286 -0.17504793 0.97661805
0.64263052 -0.17502218 0.97554374
0.6434074 -0.17549439 0.97298563
0.64273322 -0.17546858 0.97190833
0.64205897 -0.17544276 0.97083098
0.64138478 -0.17541695 0.96975362
0.64071053 -0.17539112 0.96867633
0.64003634 -0.17536531 0.96759903
0.63936216 -0.17533949 0.96652168
0.63868791 -0.17531368 0.96544433
0.63944811 -0.17578521 0.96285951
0.63948828 -0.17600799 0.96102399
0.64095736 -0.17672789 0.95767206
0.64027756 -0.17670187 0.95658576
0.63959777 -0.17667584 0.95549953
0.63891798 -0.17664981 0.95441329
0.64037305 -0.17736919 0.95103908
0.69185376 -0.17973399 1.0408282
0.69117492 -0.179708 1.0397435
0.69049603 -0.179682 1.0386587
0.68981713 -0.17965601 1.0375741
0.68913829 -0.17963001 1.0364892
0.68845946 -0.17960402 1.0354044
0.68778056 -0.17957802 1.0343198
0.68710166 -0.17955203 1.0332351
0.68642282 -0.17952603 1.0321503
0.68574399 -0.17950004 1.0310655
0.68506509 -0.17947404 1.0299808
0.68283457 -0.1789427 1.0302165
0.68215758 -0.17891678 1.0291346
0.68148059 -0.17889085 1.0280528
0.68080354 -0.17886493 1.0269711
0.68012655 -0.17883901 1.0258893
0.67867839 -0.17856057 1.025475
0.6780023 -0.17853467 1.0243948
0.67578763 -0.17800395 1.0246557
0.67511338 -0.17797814 1.0235784
0.67443913 -0.17795232 1.022501
0.67223191 -0.17742187 1.0227737
0.67155951 -0.17739612 1.0216994
0.67088717 -0.17737037 1.0206251
0.67021483 -0.17734462 1.0195508
0.66954249 -0.17731887 1.0184765
0.66887009 -0.17729312 1.0174021
0.66743684 -0.17701526 1.0170116
0.66524541 -0.17648543 1.0173097
0.66457587 -0.17645979 1.0162398
0.66314811 -0.17618214 1.0158584
0.66247946 -0.17615654 1.0147899
0.66181082 -0.17613094 1.0137215
0.65963143 -0.17560154 1.0140388
0.65896469 -0.17557602 1.0129734
0.6582979 -0.17555048 1.0119081
0.65687853 -0.17527315 1.0115399
0.65621269 -0.17524765 1.0104759
0.65329474 -0.174467 1.011513
0.65113217 -0.17393826 1.011857
0.65047091 -0.17391293 1.0108005
0.64980972 -0.17388761 1.0097439
0.64914852 -0.17386229 1.0086875
0.64848733 -0.17383698 1.0076309
0.64782614 -0.17381166 1.0065744
0.64716494 -0.17378634 1.0055178
0.64650375 -0.17376103 1.0044613
0.64584255 -0.17373571 1.0034049
0.64666414 -0.17421311 1.0009179
0.64600104 -0.17418772 0.9998585
0.645338 -0.17416233 0.99879903
0.64541358 -0.1743882 0.99701989
0.64622498 -0.17486522 0.99451667
0.64555913 -0.17483972 0.99345273
0.64489329 -0.17481422 0.99238873
0.64496231 -0.17503984 0.99059927
0.64429557 -0.17501432 0.98953378
0.64362878 -0.17498878 0.98846835
0.64442623 -0.17546526 0.9859429
0.64375758 -0.17543966 0.98487449
0.64527971 -0.17616685 0.98160708
0.64460826 -0.17614113 0.9805342
0.64466524 -0.1763663 0.97872537
0.6439929 -0.17634055 0.977651
0.6433205 -0.1763148 0.97657669
0.64264816 -0.17628905 0.97550231
0.64197582 -0.17626333 0.97442794
0.64275092 -0.17673895 0.97186679
0.64207673 -0.17671312 0.97078943
0.64140248 -0.17668732 0.96971214
0.64072829 -0.17666149 0.96863478
0.64005405 -0.17663568 0.96755743
0.63937986 -0.17660986 0.96648014
0.63870567 -0.17658405 0.96540284
0.63946587 -0.17705907 0.96281785
0.6395061 -0.1772836 0.96098226
0.64097524 -0.17800876 0.95763016
0.64029545 -0.17798275 0.95654392
0.63961565 -0.17795672 0.95545769
0.63893586 -0.17793068 0.95437145
0.63825607 -0.17790465 0.95328522
0.63757628 -0.17787862 0.95219898
0.69187164 -0.18101312 1.0407865
0.69119275 -0.18098713 1.0397017
0.69051385 -0.18096113 1.0386169
0.68826842 -0.18042572 1.038829
0.68759143 -0.18039979 1.0377471
0.68691444 -0.18037388 1.0366654
0.68779844 -0.18085715 1.0342779
0.68711954 -0.18083116 1.0331931
0.68644071 -0.18080516 1.0321084
0.68576181 -0.18077917 1.0310237
0.68508291 -0.18075317 1.0299389
0.68285239 -0.18021832 1.0301747
0.6821754 -0.18019241 1.0290929
0.68149835 -0.18016648 1.0280111
0.68082136 -0.18014055 1.0269294
0.68014437 -0.18011464 1.0258476
0.67869616 -0.17983446 1.0254334
0.67647952 -0.17930014 1.0256915
0.67580533 -0.17927432 1.0246141
0.67513108 -0.17924851 1.0235368
0.67445689 -0.17922269 1.0224595
0.67224956 -0.1786887 1.0227324
0.67157722 -0.17866296 1.0216581
0.67090487 -0.17863721 1.0205836
0.67023253 -0.17861149 1.0195093
0.66956013 -0.17858574 1.018435
0.66888779 -0.17855999 1.0173607
0.66745448 -0.17828037 1.0169703
0.665263 -0.17774701 1.0172684
0.66459346 -0.17772137 1.0161985
0.66316569 -0.17744197 1.0158172
0.66249704 -0.17741637 1.0147488
0.6618284 -0.17739077 1.0136803
0.65964895 -0.17685789 1.0139978
0.65898222 -0.17683236 1.0129323
0.65831542 -0.17680682 1.0118669
0.65689605 -0.17652774 1.0114989
0.65623021 -0.17650224 1.0104349
0.65331215 -0.17571633 1.0114721
0.6526491 -0.17569093 1.0104126
0.65048832 -0.17515878 1.0107597
0.64982712 -0.17513345 1.0097032
0.64916593 -0.17510813 1.0086467
0.64850473 -0.17508282 1.0075902
0.64784354 -0.1750575 1.0065336
0.64718235 -0.17503218 1.0054772
0.64652115 -0.17500687 1.0044206
0.64734465 -0.17548783 1.0019367
0.64668155 -0.17546244 1.0008771
0.64601851 -0.17543705 0.99981761
0.64535546 -0.17541166 0.99875814
0.64543104 -0.17563929 0.996979
0.64476705 -0.17561387 0.99591804
0.64557666 -0.17609431 0.99341166
0.64491075 -0.17606881 0.99234772
0.64424497 -0.17604332 0.99128377
0.6443131 -0.17627066 0.98949271
0.6436463 -0.17624512 0.98842728
0.64444381 -0.17672509 0.98590171
0.64377517 -0.17669949 0.9848333
0.64383686 -0.17692658 0.98303181
0.64462596 -0.17740624 0.98049283
0.64468294 -0.17763317 0.97868395
0.6440106 -0.17760742 0.97760957
0.6433382 -0.17758167 0.9765352
0.64266586 -0.17755592 0.97546089
0.64199352 -0.17753017 0.97438651
0.64132112 -0.17750442 0.9733122
0.64209443 -0.17798349 0.97074789
0.64142025 -0.17795768 0.96967053
0.64074606 -0.17793186 0.96859324
0.64007181 -0.17790605 0.96751595
0.64083582 -0.17838474 0.96493679
0.64015979 -0.17835885 0.96385652
0.64020091 -0.17858516 0.96202236
0.64095658 -0.17906353 0.95942986
0.64027774 -0.17903754 0.95834512
0.63959885 -0.17901154 0.95726037
0.63963354 -0.1792376 0.95541579
0.63895375 -0.17921157 0.95432955
0.63827389 -0.17918554 0.95324332
0.63759416 -0.17915951 0.95215708
0.69188946 -0.18229227 1.0407447
0.68964028 -0.18175317 1.0409508
0.68896323 -0.18172726 1.0398691
0.68828624 -0.18170133 1.0387872
0.68760926 -0.1816754 1.0377054
0.68693227 -0.18164949 1.0366237
0.68625522 -0.18162356 1.0355419
0.68557823 -0.18159764 1.0344601
0.68645853 -0.18208431 1.0320666
0.68422419 -0.18154579 1.0322965
0.6835472 -0.18151987 1.0312147
0.68287021 -0.18149394 1.030133
0.68141824 -0.18121186 1.0297129
0.68074214 -0.18118598 1.0286326
0.6785199 -0.18064795 1.0288819
0.67784572 -0.18062215 1.0278046
0.67717147 -0.18059632 1.0267272
0.67649728 -0.18057051 1.0256499
0.67582303 -0.18054469 1.0245726
0.67514884 -0.18051888 1.0234953
0.67293966 -0.17998132 1.0237653
0.67226726 -0.17995557 1.022691
0.67159492 -0.17992982 1.0216167
0.67092258 -0.17990407 1.0205423
0.67025018 -0.17987832 1.0194679
0.66881496 -0.17959689 1.0190747
0.66814357 -0.17957118 1.0180018
0.66595024 -0.17903426 1.0182971
0.66528064 -0.17900863 1.0172272
0.66385192 -0.17872743 1.0168444
0.66318327 -0.17870183 1.0157759
0.66251463 -0.17867623 1.0147076
0.66184598 -0.17865063 1.0136392
0.65966654 -0.17811422 1.0139567
0.65899974 -0.17808869 1.0128913
0.65833294 -0.17806315 1.0118258
0.65691358 -0.17778234 1.0114578
0.65474433 -0.17724632 1.0117918
0.65332961 -0.17696567 1.0114312
0.65266651 -0.17694028 1.0103717
0.65050572 -0.17640461 1.0107191
0.64984453 -0.17637928 1.0096625
0.64918333 -0.17635396 1.008606
0.64852214 -0.17632864 1.0075495
0.64786094 -0.17630333 1.0064929
0.64719975 -0.17627801 1.0054364
0.64653856 -0.17625269 1.0043799
0.64587736 -0.17622738 1.0033233
0.64669901 -0.17671178 1.0008363
0.64603597 -0.17668639 0.99977678
0.64537293 -0.176661 0.99871731
0.64470983 -0.17663561 0.99765778
0.64478451 -0.17686495 0.99587709
0.64559418 -0.17734891 0.99337065
0.64492828 -0.17732342 0.99230671
0.64426243 -0.17729792 0.99124277
0.64433062 -0.177527 0.98945165
0.64366382 -0.17750145 0.98838621
0.64446139 -0.17798495 0.98586053
0.64379275 -0.17795935 0.98479211
0.6438545 -0.1781882 0.9829905
0.6431849 -0.17816256 0.98192066
0.64397216 -0.17864563 0.97937858
0.64402825 -0.17887425 0.97756815
0.64335591 -0.17884851 0.97649384
0.64268357 -0.17882276 0.97541946
0.64201117 -0.17879704 0.97434509
0.64133883 -0.17877129 0.97327077
0.64066648 -0.17874554 0.9721964
0.64143795 -0.17922805 0.96962905
0.64076376 -0.17920223 0.9685517
0.64008957 -0.17917642 0.96747434
0.64085358 -0.17965859 0.96489513
0.64017755 -0.17963271 0.96381485
0.64021873 -0.17986077 0.96198064
0.64097446 -0.18034267 0.95938802
0.64029557 -0.18031669 0.95830327
0.63961673 -0.18029068 0.95721853
0.63893783 -0.1802647 0.95613372
0.63825899 -0.18023869 0.95504904
0.63829178 -0.18046641 0.95320141
0.63761204 -0.18044038 0.95211518
0.69190735 -0.18357137 1.0407028
0.68965805 -0.1830288 1.0409091
0.68898106 -0.18300289 1.0398273
0.68830407 -0.18297696 1.0387455
0.68762708 -0.18295103 1.0376637
0.68695003 -0.18292512 1.036582
0.68627304 -0.18289919 1.0355002
0.68559605 -0.18287326 1.0344183
0.684919 -0.18284735 1.0333366
0.68424201 -0.18282142 1.0322548
0.68356502 -0.18279549 1.031173
0.6821121 -0.18251161 1.0307516
0.681436 -0.18248573 1.0296713
0.67921185 -0.18194413 1.0299177
0.67853767 -0.18191831 1.0288403
0.67786342 -0.1818925 1.027763
0.67718923 -0.18186668 1.0266857
0.67651498 -0.18184087 1.0256084
0.6758408 -0.18181504 1.0245311
0.67516655 -0.18178923 1.0234537
0.6729573 -0.18124819 1.0237238
0.67228496 -0.18122244 1.0226495
0.67161262 -0.18119669 1.0215752
0.67094022 -0.18117094 1.0205009
0.67026788 -0.18114519 1.0194265
0.66883266 -0.18086201 1.0190333
0.66816121 -0.18083631 1.0179604
0.66596782 -0.18029585 1.0182558
0.66453809 -0.1800129 1.0178716
0.66386944 -0.1799873 1.0168031
0.66320086 -0.1799617 1.0157348
0.66253221 -0.1799361 1.0146663
0.66186357 -0.1799105 1.013598
0.65968406 -0.17937057 1.0139155
0.65901726 -0.17934504 1.0128502
0.65835053 -0.1793195 1.0117848
0.65693104 -0.17903693 1.0114168
0.65476179 -0.17849742 1.0117509
0.65334702 -0.17821501 1.0113904
0.65268397 -0.17818962 1.0103309
0.65052313 -0.17765044 1.0106783
0.64986193 -0.1776251 1.0096217
0.64920074 -0.17759979 1.0085652
0.64853954 -0.17757447 1.0075088
0.64787835 -0.17754915 1.0064522
0.64721709 -0.17752384 1.0053957
0.6465559 -0.17749852 1.0043392
0.64589471 -0.1774732 1.0032825
0.64671642 -0.17796113 1.0007954
0.64605337 -0.17793573 0.99973595
0.64539033 -0.17791034 0.99867642
0.64472729 -0.17788495 0.99761695
0.64480197 -0.17811605 0.9958362
0.64561164 -0.1786035 0.99332964
