ply
format ascii 1.0
comment PCL generated
element vertex 982
property float x
property float y
property float z
property uchar red
property uchar green
property uchar blue
element camera 0
property float view_px
property float view_py
property float view_pz
property float x_axisx
property float x_axisy
property float x_axisz
property float y_axisx
property float y_axisy
property float y_axisz
property float z_axisx
property float z_axisy
property float z_axisz
property float focal
property float scalex
property float scaley
property float centerx
property float centery
property int viewportx
property int viewporty
property float k1
property float k2
end_header
0.0042421222 0.020203583 0.013531804 8 144 92
0.0051870346 0.020054281 0.011262894 11 137 66
0.0045098662 0.020080045 0.010183215 5 144 62
0.0046408772 0.020018384 0.0085045099 2 144 66
0.0039627552 0.020044193 0.0074235201 0 139 68
0.0032846332 0.020069994 0.0063422918 19 136 80
0.0026065707 0.020095803 0.005261302 19 128 76
0.0019284487 0.020121604 0.0041801929 29 124 92
0.0028575659 0.019972906 0.0018860102 22 118 111
0.0021775961 0.019998781 0.00080192089 32 113 102
0.0022993088 0.019937478 -0.00089156628 13 117 104
0.0032200217 0.0197891 -0.0031991005 9 124 100
0.0033370852 0.019727968 -0.0049000978 0 129 103
0.00265342 0.019753985 -0.0059901476 0 137 101
0.0019696951 0.019780003 -0.0070801973 0 139 95
0.002880156 0.019632012 -0.009403944 0 141 89
0.0021945834 0.019658104 -0.010496974 0 134 77
0.0015090108 0.019684196 -0.011589885 0 106 39
0.00082343817 0.01971028 -0.012682915 0 118 56
0.0017245412 0.019562647 -0.015021563 0 121 58
0.0010371208 0.019588806 -0.016117573 0 136 69
0.00034970045 0.019614965 -0.017213464 0 137 80
-0.00033771992 0.019641124 -0.018309474 0 137 80
-0.00023549795 0.019580558 -0.020034194 0 148 92
-0.00092381239 0.019606754 -0.021131635 0 144 80
-0.0016121864 0.01963295 -0.022229075 0 139 75
-0.00072693825 0.019485913 -0.024592996 4 141 71
-0.00141716 0.019512184 -0.025693417 21 152 60
-0.0021073818 0.019538447 -0.026793838 23 158 67
-0.0020135641 0.019478202 -0.028531909 62 164 90
-0.0027047396 0.019504502 -0.02963376 18 163 97
-0.0033958554 0.019530803 -0.030735612 22 161 93
-0.0040870309 0.019557104 -0.031837583 5 160 92
-0.0047781467 0.019583412 -0.032939434 13 165 83
-0.0054693222 0.019609712 -0.034041286 20 169 92
-0.0061604977 0.019636013 -0.035143256 64 170 98
-0.0068516135 0.019662313 -0.036245108 43 167 96
-0.0059896111 0.019516155 -0.038646221 67 167 98
-0.0051313639 0.019370161 -0.041053176 19 164 99
-0.0058262944 0.019396603 -0.042160988 0 162 101
-0.0057473779 0.019336931 -0.043922901 1 164 106
-0.0064431429 0.019363411 -0.045032144 0 169 104
-0.0055951476 0.019217782 -0.047455549 0 168 102
-0.00629282 0.019244328 -0.048567891 0 167 98
-0.0069904923 0.019270882 -0.049680114 0 166 103
-0.0076881051 0.019297428 -0.050792336 0 166 103
-0.0083857775 0.019323982 -0.051904678 0 168 102
-0.0090834498 0.019350529 -0.05301702 0 169 102
-0.0097811222 0.019377075 -0.054129243 0 171 104
-0.010478795 0.019403629 -0.055241466 0 170 104
-0.011176467 0.019430175 -0.056353807 0 172 105
-0.011874139 0.019456729 -0.057466149 0 171 106
-0.010284066 0.019226201 -0.060593963 0 168 104
-0.01098454 0.019252859 -0.061710715 1 155 89
-0.011684954 0.019279517 -0.062827468 0 157 92
0.01987493 0.018046886 0.028945804 235 239 239
0.019194961 0.018072762 0.027861714 227 234 233
0.018514991 0.018098637 0.026777625 216 233 230
0.017834961 0.018124513 0.025693536 210 224 224
0.015508592 0.018329889 0.025760293 212 222 220
0.01483047 0.018355697 0.024679303 215 223 220
0.014152408 0.018381499 0.023598075 216 224 222
0.012653947 0.018496953 0.023096919 215 222 221
0.011976779 0.018522717 0.02201736 210 224 224
0.0096625686 0.018727623 0.02210331 212 220 214
0.0089872479 0.01875332 0.021026731 196 217 216
0.0083119273 0.018779017 0.019950032 177 209 197
0.0076366067 0.018804714 0.018873334 62 151 116
0.0053316951 0.019009292 0.018974304 0 138 74
0.0046582818 0.019034922 0.017900586 0 150 93
0.0056106448 0.018881813 0.015643477 0 157 95
0.0049353242 0.01890751 0.014566779 0 155 102
0.0042600632 0.018933214 0.0134902 0 153 98
0.0035847425 0.018958911 0.012413621 0 150 96
0.0029094219 0.018984608 0.011336923 0 142 78
0.0038506389 0.018831953 0.0090619326 0 140 82
0.0031734705 0.018857725 0.0079823732 0 137 73
0.0024963021 0.018883497 0.0069028139 0 131 80
0.0018191338 0.018909261 0.0058231354 0 126 89
0.0011419058 0.018935032 0.0047434568 13 104 110
0.00046473742 0.018960804 0.0036638975 0 96 137
0.00059020519 0.0188976 0.0019762516 34 93 136
0.0015156865 0.018745534 -0.00032401085 21 83 128
0.00083571672 0.01877141 -0.0014079809 32 81 125
0.0025553107 0.018530697 -0.0043296814 21 89 126
0.0018725991 0.018556684 -0.0054181814 11 103 127
0.0011898279 0.018582664 -0.0065066814 8 114 124
0.0013041496 0.018519878 -0.0082122087 0 117 118
0.0022127628 0.018368468 -0.010539174 0 124 103
0.0015271902 0.01839456 -0.011632085 0 122 79
0.00084161758 0.018420644 -0.012725115 0 122 72
0.00015610456 0.018446736 -0.013818026 0 130 72
-0.00052946806 0.018472821 -0.014911056 0 136 65
0.00036793947 0.018321827 -0.017255783 1 139 73
-0.0003194809 0.018347986 -0.018351674 0 138 70
-0.0010069013 0.018374145 -0.019447684 0 151 90
-0.00090557337 0.018311858 -0.021173954 0 154 92
-0.0015939474 0.018338054 -0.022271395 0 153 87
-0.0022823215 0.018364251 -0.023368835 0 152 86
-0.0013988614 0.018213786 -0.025735855 0 157 90
-0.0020890832 0.018240049 -0.026836276 0 159 92
-0.002779305 0.018266313 -0.027936697 0 162 94
-0.0034695268 0.018292584 -0.029037118 0 161 94
-0.0041597486 0.018318847 -0.03013742 0 161 94
-0.0048499703 0.01834511 -0.031237841 0 161 91
-0.0055401921 0.018371381 -0.032338262 0 162 94
-0.0062304139 0.018397644 -0.033438683 0 162 99
-0.0061421394 0.018335864 -0.035185695 0 161 98
-0.0068333149 0.018362164 -0.036287665 0 163 99
-0.0075244308 0.018388465 -0.037389517 0 166 100
-0.0066642165 0.01823888 -0.03979373 0 165 97
-0.0073572397 0.018265255 -0.040898561 0 164 99
-0.0065026879 0.018115893 -0.043311596 1 165 97
-0.0064247251 0.018054493 -0.045075059 4 165 98
-0.0071204901 0.018080972 -0.046184301 4 165 98
-0.0078163147 0.018107451 -0.047293544 1 163 100
-0.0085121393 0.018133931 -0.048402905 7 164 102
-0.0092079043 0.01816041 -0.049512267 18 166 103
-0.009903729 0.01818689 -0.050621629 4 166 104
-0.010599554 0.018213362 -0.051730871 0 168 105
-0.011295378 0.018239841 -0.052840114 0 169 105
-0.011991143 0.01826632 -0.053949475 0 170 106
-0.012686968 0.0182928 -0.055058837 0 169 108
-0.011855662 0.018144324 -0.057509065 0 171 109
-0.011790693 0.018083423 -0.059293151 0 170 110
-0.012489259 0.018110007 -0.060407043 0 163 105
-0.013187885 0.018136591 -0.061520696 0 156 94
-0.013886511 0.018163182 -0.062634587 0 169 116
0.019892931 0.016767763 0.028903961 235 239 239
0.019212961 0.016793638 0.027819872 226 233 232
0.018532991 0.016819514 0.026735783 212 229 226
0.016204715 0.017028473 0.026799679 214 227 227
0.015526593 0.017054275 0.02571857 227 237 235
0.014848471 0.017080083 0.02463758 230 238 235
0.014170349 0.017105885 0.023556352 235 242 241
0.012671888 0.017223082 0.023055196 230 237 236
0.010355771 0.017431572 0.023138404 213 226 226
0.0080433488 0.01763992 0.023227572 208 217 211
0.0073699355 0.017665543 0.022153854 195 216 215
0.0066964626 0.017691173 0.021080136 177 209 197
0.0060229897 0.017716803 0.020006537 64 153 118
0.0053495765 0.017742425 0.018932939 0 140 76
0.0046761036 0.017768055 0.017859221 0 149 92
0.0040026903 0.017793685 0.016785502 0 156 94
0.0033292174 0.017819315 0.015711904 0 154 101
0.0026557446 0.017844938 0.014638186 0 157 102
0.0019823313 0.017870568 0.013564467 0 150 96
0.0013088584 0.017896198 0.012490869 0 146 81
0.0022519827 0.017739952 0.01021874 0 140 82
0.0015766621 0.017765649 0.0091420412 0 139 75
0.00090140104 0.017791353 0.0080654621 0 132 81
0.00022608042 0.01781705 0.0069887638 0 123 85
0.0011599064 0.017661162 0.0047018528 0 88 94
0.00048273802 0.017686933 0.0036221743 0 83 124
-0.00019448996 0.017712705 0.0025426149 53 111 154
-6.9916248e-05 0.017647795 0.0008534193 36 99 143
-0.00074803829 0.017673597 -0.00022768974 18 67 111
0.00097358227 0.017427556 -0.0031465292 3 70 107
0.00029271841 0.017453469 -0.004232049 0 79 103
0.0012078881 0.017298281 -0.0065487623 0 89 99
0.0013222694 0.017233759 -0.0082542896 0 105 106
0.00063854456 0.017259777 -0.0093442202 0 118 97
-4.5120716e-05 0.017285794 -0.01043427 4 144 101
-0.0007288456 0.017311811 -0.01152432 3 143 93
-0.0014125109 0.017337836 -0.012614369 25 158 100
-0.00051128864 0.017183185 -0.014953256 18 158 88
-0.0011968613 0.017209277 -0.016046166 17 155 90
-0.0018824339 0.017235361 -0.017139196 0 155 86
-0.0025679469 0.017261453 -0.018232226 0 154 92
-0.0032535195 0.017287537 -0.019325137 0 158 96
-0.0023635626 0.017133325 -0.021681905 0 159 93
-0.003050983 0.017159484 -0.022777796 0 158 92
-0.0029523969 0.017095558 -0.024508595 0 157 90
-0.0036407113 0.017121747 -0.025606036 0 158 90
-0.0043290854 0.017147943 -0.026703477 0 161 93
-0.0050174594 0.01717414 -0.027800918 0 160 93
-0.0057058334 0.017200336 -0.028898358 0 159 92
-0.0048316717 0.017046712 -0.031280398 0 161 91
-0.0055218935 0.017072983 -0.0323807 0 161 93
-0.0062120557 0.017099246 -0.033481121 0 160 97
-0.0069022775 0.017125517 -0.034581542 0 160 97
-0.0075924993 0.01715178 -0.035681963 0 161 98
-0.0075060725 0.017088316 -0.037432075 0 166 100
-0.008197248 0.017114617 -0.038533926 0 165 97
-0.0088884234 0.017140917 -0.039635777 0 164 99
-0.0080319047 0.016987972 -0.04204607 1 165 97
-0.0087249279 0.017014347 -0.043150902 2 163 96
-0.007874012 0.01686161 -0.045570016 3 164 97
-0.0085688829 0.01688806 -0.046677828 1 163 100
-0.0092637539 0.016914502 -0.04778564 5 162 100
-0.0099586844 0.016940944 -0.048893452 15 164 101
-0.010653555 0.016967386 -0.050001264 4 166 104
-0.011348426 0.016993828 -0.051109195 0 166 104
-0.011276901 0.016930938 -0.052883029 0 169 105
-0.011972725 0.016957417 -0.053992271 0 170 106
-0.01266849 0.016983896 -0.055101633 0 171 109
-0.013364315 0.017010376 -0.056210876 0 171 109
-0.012534797 0.016858451 -0.058664203 1 171 112
-0.012470782 0.016795844 -0.060449958 0 171 113
-0.013169348 0.016822428 -0.06156373 0 162 99
-0.013867974 0.016849019 -0.062677503 0 158 105
0.014640391 0.016184621 0.035563111 238 243 242
0.013967872 0.016210213 0.034490943 236 241 240
0.014122307 0.016142413 0.032849193 224 239 236
0.016752958 0.015794605 0.029491186 222 231 232
0.016900778 0.015727043 0.027839065 215 227 225
0.016222656 0.015752852 0.026757956 217 225 222
0.014721394 0.015871912 0.026252389 241 248 247
0.014044225 0.015897684 0.02517283 248 251 250
0.013367057 0.015923455 0.024093151 237 248 248
0.011049032 0.016135506 0.024173498 227 237 235
0.0087347031 0.016347438 0.024259806 210 222 220
0.0072426796 0.016466141 0.023769021 199 216 213
0.0065701604 0.016491733 0.022696853 196 220 218
0.0058976412 0.016517326 0.021624684 166 207 200
0.005225122 0.016542919 0.020552516 60 159 127
0.0045526028 0.016568512 0.019480348 0 140 82
0.0038800836 0.016594104 0.018408179 0 148 89
0.0032075644 0.016619697 0.017335892 0 156 94
0.0025350451 0.01664529 0.016263723 0 155 101
0.0018625259 0.016670883 0.015191555 0 155 101
0.0011900067 0.016696468 0.014119387 0 154 101
0.00051748753 0.016722061 0.013047218 0 143 85
-0.00015503168 0.016747653 0.011974931 0 138 81
-2.0205975e-05 0.016680598 0.010302067 0 139 75
-0.00069361925 0.016706228 0.0092283487 0 123 84
-0.0013670921 0.016731851 0.0081547499 18 109 94
-0.002040565 0.016757481 0.0070810318 0 77 112
-0.0027139783 0.016783111 0.0060073137 0 51 140
-0.0033874512 0.016808741 0.0049337149 69 94 156
-0.0024572611 0.016649485 0.002640605 97 130 175
-0.0031325817 0.016675182 0.0015640259 43 86 143
-0.0038079023 0.016700879 0.00048744678 0 68 131
-0.0028852224 0.016541928 -0.0018174648 60 71 133
-0.0027643442 0.016475394 -0.0035127401 20 59 137
0.00054323673 0.016039893 -0.007679224 17 73 130
-0.00013953447 0.016065881 -0.008767724 3 85 131
-0.00082224607 0.016091861 -0.0098563433 0 109 123
-0.0015050173 0.016117841 -0.010944724 0 130 120
-0.0013943911 0.016051702 -0.012656331 0 149 118
-0.0020781159 0.01607772 -0.013746381 0 157 95
-0.0027617812 0.016103737 -0.014836431 0 158 93
-0.0034455061 0.016129754 -0.01592648 0 157 92
-0.0041291714 0.016155772 -0.017016411 0 156 92
-0.0032353401 0.015997902 -0.019367337 0 158 92
-0.0039209127 0.016023993 -0.020460248 0 159 93
-0.0046064854 0.016050085 -0.021553278 0 159 93
-0.005292058 0.01607617 -0.022646308 0 159 90
-0.005977571 0.016102262 -0.023739219 0 157 89
-0.005095005 0.015944824 -0.026107907 0 158 91
-0.0057824254 0.015970983 -0.027203918 0 159 93
-0.0064698458 0.015997142 -0.028299928 0 159 94
-0.0063759089 0.015931636 -0.030038238 0 159 94
-0.0070642829 0.015957832 -0.031135678 0 159 94
-0.0077525973 0.015984021 -0.032233 0 160 96
-0.0068839788 0.015827119 -0.034623981 0 160 96
-0.0075742006 0.015853383 -0.035724401 0 160 100
-0.0082644224 0.015879646 -0.036824822 0 162 99
-0.0081789494 0.015814468 -0.038576484 0 163 99
-0.0088700652 0.015840769 -0.039678335 0 162 98
-0.0095612407 0.015867069 -0.040780187 0 161 99
-0.0087065101 0.015710697 -0.043193579 0 161 98
-0.0093995333 0.015737064 -0.04429841 0 163 102
-0.010092556 0.015763439 -0.045403361 0 162 101
-0.01078558 0.015789814 -0.046508193 0 162 99
-0.011478543 0.015816182 -0.047613025 0 163 102
-0.012171566 0.015842557 -0.048717856 0 164 102
-0.011329949 0.015686668 -0.051151872 0 163 102
-0.01202482 0.015713111 -0.052259684 0 164 103
-0.011954248 0.015648507 -0.054035068 0 169 111
-0.012650073 0.015674986 -0.055144429 0 167 111
-0.013345838 0.015701465 -0.056253791 0 165 103
-0.01251632 0.015546039 -0.058707118 0 169 102
-0.013213992 0.015572585 -0.05981946 0 170 112
-0.013911664 0.015599139 -0.060931802 0 160 109
-0.014609337 0.015625685 -0.062044024 0 147 92
0.01782006 0.01460816 0.0348984 236 236 236
0.014658213 0.014919512 0.035521626 229 234 233
0.013985693 0.014945105 0.034449458 228 232 232
0.014140189 0.014875554 0.032807708 216 231 228
0.016770899 0.014520735 0.029449582 222 231 232
0.016093731 0.014546506 0.028369904 222 234 232
0.015416563 0.014572278 0.027290344 228 236 232
0.013092875 0.014788054 0.02736187 255 255 255
0.010772884 0.015003696 0.027439356 255 255 255
0.010099471 0.015029319 0.026365638 236 247 247
0.0086055398 0.015149847 0.025871992 224 233 232
0.0079330206 0.015175439 0.024799824 208 220 218
0.0072605014 0.015201032 0.023727655 200 217 214
0.0065879822 0.015226625 0.022655487 199 222 220
0.0042820573 0.015441731 0.022755146 174 215 208
0.0036113858 0.015467249 0.021685958 67 166 134
0.002940774 0.015492767 0.02061677 0 143 86
0.0022701025 0.015518293 0.019547582 0 149 91
0.001599431 0.015543811 0.018478274 0 156 94
0.00092875957 0.015569337 0.017409086 0 152 97
0.00025808811 0.015594855 0.016339898 0 152 97
-0.00041252375 0.015620381 0.01527071 0 155 102
-0.0010831952 0.015645899 0.014201522 0 147 89
-0.00013720989 0.015482545 0.011933684 0 137 80
-0.0008097291 0.015508138 0.010861397 0 132 68
-0.0014822483 0.01553373 0.0097892284 0 120 80
-0.0021547675 0.015559323 0.0087170601 15 107 92
-0.0028272867 0.015584916 0.0076448917 0 77 112
-0.0026960969 0.015516251 0.0059659481 1 55 144
-0.0033695698 0.015541881 0.00489223 54 79 141
-0.0040430427 0.015567504 0.0038186312 74 107 152
-0.0047164559 0.015593134 0.0027449131 67 109 166
-0.0053899288 0.015618764 0.001671195 27 106 168
-0.0044653416 0.015456222 -0.00063073635 99 110 172
-0.0035444498 0.015293822 -0.0029387474 38 78 156
-0.0034244657 0.015225582 -0.0046354532 9 65 122
-0.001713872 0.014969453 -0.0075725317 0 82 128
-0.0023947954 0.014995366 -0.0086580515 0 96 110
-0.0030756593 0.015021272 -0.0097435713 0 113 104
-0.0037565827 0.015047185 -0.01082921 0 142 111
-0.0028524399 0.014885426 -0.013163924 0 152 90
-0.0035352111 0.014911406 -0.014252305 0 158 93
-0.0042179823 0.014937386 -0.015340924 0 158 93
-0.0041110516 0.014869638 -0.017058492 0 156 92
-0.0047947764 0.014895655 -0.018148541 0 158 92
-0.0054784417 0.014921673 -0.019238472 0 159 93
-0.004588306 0.01476045 -0.021595478 0 158 92
-0.0052738786 0.014786534 -0.022688508 0 159 90
-0.0059593916 0.014812626 -0.023781419 0 158 90
-0.0066449642 0.01483871 -0.02487433 0 158 91
-0.0073305368 0.014864802 -0.02596736 0 159 93
-0.0080161095 0.014890887 -0.02706039 0 159 94
-0.0071390271 0.014730155 -0.029438138 0 159 94
-0.0078264475 0.014756314 -0.030534029 0 159 94
-0.0085138679 0.014782473 -0.03162992 0 160 96
-0.0084227324 0.014715329 -0.03337276 0 161 97
-0.007555902 0.014554985 -0.035766959 0 160 100
-0.0082461238 0.014581248 -0.036867261 0 161 98
-0.0089363456 0.014607519 -0.037967682 0 164 100
-0.0096265674 0.014633782 -0.039068103 0 165 100
-0.0095428824 0.014566928 -0.040822744 0 164 102
-0.010234058 0.014593229 -0.041924596 0 164 100
-0.010925174 0.014619529 -0.043026567 0 163 102
-0.011616349 0.014645837 -0.044128418 0 163 102
-0.012307465 0.014672138 -0.045230269 0 166 103
-0.012998641 0.014698438 -0.04633224 0 167 105
-0.013689816 0.014724739 -0.047434092 0 168 105
-0.014380932 0.014751039 -0.048535943 0 166 104
-0.015072107 0.01477734 -0.049637914 0 164 103
-0.014232218 0.014618009 -0.052075028 0 165 108
-0.014925241 0.014644377 -0.05317986 0 157 101
-0.014091074 0.014485292 -0.055626035 0 144 82
-0.014023244 0.014419027 -0.057405829 0 161 94
-0.013195455 0.014260173 -0.059862375 0 170 112
-0.013893127 0.014286727 -0.060974717 0 159 107
-0.0145908 0.014313273 -0.06208694 0 143 89
0.017838001 0.013337806 0.034856796 225 230 229
0.017162681 0.013363503 0.033780098 222 229 228
0.01648736 0.013389207 0.032703519 224 229 228
0.017466068 0.0132211 0.030487418 230 231 229
0.01678884 0.013246872 0.029407859 229 231 226
0.016111672 0.013272643 0.0283283 235 236 234
0.012137651 0.013685577 0.029545188 237 240 237
0.011464238 0.013711207 0.028471589 252 255 255
0.0099684 0.013833553 0.027974963 255 255 255
0.0092958808 0.013859145 0.026902795 240 246 247
0.0086233616 0.013884738 0.025830626 226 233 232
0.0063118339 0.014103569 0.025921583 208 220 218
0.0056411624 0.014129095 0.024852395 204 216 214
0.0049704909 0.014154613 0.023783088 209 224 221
0.0042998195 0.014180139 0.0227139 183 221 217
0.0036292076 0.014205657 0.021644711 92 167 139
0.0029585361 0.014231175 0.020575404 0 147 95
0.0014738441 0.014353104 0.020096779 0 148 89
0.00080412626 0.014378592 0.019029021 0 154 97
0.00013440847 0.014404081 0.017961383 0 154 92
-0.00053530931 0.014429562 0.016893506 0 150 86
-0.0012050271 0.01445505 0.015825868 0 154 97
-0.0018747449 0.014480539 0.01475811 0 153 98
-0.0017360449 0.014409825 0.013090968 0 145 91
-0.0024067163 0.014435351 0.01202178 0 130 74
-0.0014644265 0.014268622 0.0097478628 0 122 80
-0.0021369457 0.014294215 0.0086756945 0 106 89
-0.0028094649 0.014319807 0.0076035261 0 75 116
-0.0034819841 0.0143454 0.0065313578 0 55 146
-0.0041545033 0.014370993 0.0054591894 51 52 136
-0.0040251613 0.014300644 0.0037771463 77 92 149
-0.0046986341 0.014326274 0.0027035475 104 113 159
-0.0053720474 0.014351904 0.0016298294 81 110 146
-0.0060455203 0.014377527 0.00055611134 57 112 160
-0.0051227212 0.014211565 -0.0017489195 38 98 156
-0.0042036176 0.01404573 -0.00406003 2 80 145
-0.0040845871 0.013975769 -0.0057584047 0 48 128
-0.0047627091 0.014001571 -0.0068393946 35 59 116
-0.0054408312 0.014027379 -0.0079205036 0 87 124
-0.00453192 0.013861924 -0.010247946 0 129 128
-0.004419446 0.013792217 -0.011956573 0 140 101
-0.0035170913 0.01362703 -0.014294386 0 151 106
-0.0041999221 0.01365301 -0.015382886 0 157 95
-0.0048826337 0.013678998 -0.016471505 0 156 94
-0.004776597 0.013609529 -0.018190503 0 158 93
-0.0054603219 0.013635546 -0.019280553 0 158 93
-0.0061439872 0.013661563 -0.020370603 0 157 95
-0.0068277121 0.013687581 -0.021460652 0 157 95
-0.0075114369 0.013713598 -0.022550583 0 157 98
-0.0081951022 0.013739616 -0.023640513 0 158 96
-0.0073123574 0.013575166 -0.02600956 0 158 96
-0.00799793 0.013601251 -0.02710259 0 158 96
-0.0086834431 0.013627343 -0.0281955 0 159 99
-0.0093690157 0.013653427 -0.029288411 0 159 99
-0.010054588 0.013679519 -0.030381441 0 159 99
-0.0091831088 0.013515502 -0.03276825 0 158 99
-0.0090928078 0.013446629 -0.034512639 0 161 99
-0.0097811818 0.013472825 -0.03561008 0 161 99
-0.008918047 0.013309129 -0.03801024 0 162 103
-0.0096082687 0.013335392 -0.039110541 0 163 105
-0.010298491 0.013361655 -0.040210962 0 164 102
-0.010988712 0.013387926 -0.041311383 0 164 102
-0.011678934 0.013414189 -0.042411804 0 165 107
-0.012369096 0.013440453 -0.043512225 0 164 102
-0.013059318 0.013466723 -0.044612527 0 166 104
-0.01374954 0.013492987 -0.045713067 0 165 107
-0.014439762 0.01351925 -0.046813369 0 166 107
-0.015129983 0.013545521 -0.04791379 0 164 106
-0.015053749 0.013477191 -0.049680352 0 165 113
-0.015744925 0.013503492 -0.050782323 0 165 113
-0.01643604 0.013529792 -0.051884174 0 153 100
-0.015599906 0.013367102 -0.054327369 0 157 93
-0.014004767 0.013110124 -0.057448745 0 161 99
-0.014700592 0.013136603 -0.058557987 0 163 105
-0.01387465 0.012974307 -0.061017632 0 161 114
-0.014572322 0.013000853 -0.062129855 16 146 97
0.021023393 0.011745363 0.03420043 216 224 222
0.020345271 0.011771172 0.033119321 218 223 222
0.019667208 0.011796974 0.032038331 220 227 226
0.018161178 0.011921465 0.031525493 225 230 229
0.017484009 0.01194723 0.030445814 243 244 242
0.01515466 0.012170233 0.030508637 241 243 238
0.014479339 0.01219593 0.029432058 247 248 245
0.012155533 0.012418725 0.029503822 247 250 248
0.010658801 0.012542859 0.029005885 252 255 255
0.0099862814 0.012568451 0.027933598 255 255 255
0.0093137622 0.012594044 0.026861429 236 242 244
0.0070002675 0.012816444 0.026949525 226 233 232
0.0055099726 0.012940332 0.026461959 208 220 218
0.0048402548 0.012965821 0.025394201 204 216 214
0.004170537 0.012991309 0.024326444 208 222 220
0.0035008192 0.01301679 0.023258805 182 220 216
0.0028310418 0.013042279 0.022191048 112 187 159
0.002161324 0.013067767 0.02112329 0 150 99
0.0014916062 0.013093248 0.020055532 0 154 95
-0.00080418587 0.013314977 0.020171881 0 154 97
-0.0014719963 0.013340391 0.019107103 0 156 94
-0.0021398664 0.013365805 0.018042326 0 156 92
-0.0028077364 0.013391219 0.016977549 0 155 98
-0.0034756064 0.013416633 0.01591289 0 154 100
-0.0025267601 0.013246171 0.013649106 0 151 97
-0.0023889542 0.013173744 0.011980414 0 136 80
-0.003059566 0.013199262 0.010911226 0 127 85
-0.0037302375 0.013224788 0.0098420382 0 110 92
-0.0027916431 0.013054706 0.0075620413 1 85 126
-0.0034641623 0.013080299 0.0064898729 0 57 149
-0.0041366816 0.013105892 0.0054177046 42 44 128
-0.0048092008 0.013131484 0.0043455362 75 90 146
-0.0046807528 0.013059422 0.0026620626 135 144 191
-0.0053542256 0.013085052 0.0015883446 93 122 158
-0.0060276389 0.013110675 0.00051474571 60 114 162
-0.0051047802 0.012941197 -0.0017905235 58 117 176
-0.0057801008 0.012966894 -0.0028672218 39 118 182
-0.0048628449 0.012797631 -0.0051813126 10 77 157
-0.0055400133 0.012823403 -0.0062609911 29 53 111
-0.0054228306 0.012751766 -0.0079622269 0 76 114
-0.0061009526 0.012777567 -0.0090433359 0 123 122
-0.0044013858 0.01251135 -0.011998534 0 141 102
-0.0050823092 0.012537263 -0.013084054 0 154 108
-0.0057631731 0.012563176 -0.014169574 0 163 101
-0.0064440966 0.012589082 -0.015255213 0 163 101
-0.0071249604 0.012614995 -0.016340733 0 163 98
-0.0078058839 0.012640908 -0.017426372 0 160 96
-0.0069128275 0.012472562 -0.019779086 0 157 95
-0.0075955987 0.01249855 -0.020867467 0 157 95
-0.0082783699 0.01252453 -0.021956086 0 162 102
-0.0089611411 0.01255051 -0.023044586 0 166 104
-0.0096439123 0.012576498 -0.024133086 0 163 101
-0.0095443726 0.012505524 -0.025862694 0 159 97
-0.010228038 0.012531541 -0.026952624 0 159 99
-0.010911763 0.012557559 -0.028042674 0 159 99
-0.011595428 0.012583576 -0.029132724 0 160 100
-0.010721982 0.012415975 -0.031516671 0 159 100
-0.0098522902 0.012248516 -0.03390646 0 160 98
-0.0097628832 0.012177937 -0.035652399 0 161 99
-0.010451257 0.012204133 -0.03674984 0 164 105
-0.0095899701 0.012036994 -0.039153099 0 162 103
-0.010280192 0.012063257 -0.04025352 0 164 102
-0.010970354 0.012089528 -0.041353822 0 167 104
-0.011660576 0.012115791 -0.042454243 0 165 107
-0.012350798 0.012142055 -0.043554664 0 165 103
-0.013041019 0.012168325 -0.044655085 0 165 103
-0.013731241 0.012194589 -0.045755506 0 164 106
-0.014421463 0.012220852 -0.046855807 0 166 107
-0.015111685 0.012247123 -0.047956347 0 169 111
-0.015801907 0.012273386 -0.049056649 0 167 114
-0.015726566 0.012203336 -0.050824761 0 166 114
-0.016417742 0.012229636 -0.051926732 0 161 108
-0.017108858 0.012255937 -0.053028584 0 160 97
-0.01398629 0.011801213 -0.057491541 0 160 98
-0.014682114 0.011827692 -0.058600783 0 164 106
-0.015377939 0.011854172 -0.059710145 0 163 116
-0.016073704 0.011880651 -0.060819507 27 157 109
0.024214625 0.0101422 0.033552647 213 217 214
0.021041393 0.01046975 0.034158707 216 224 222
0.020363271 0.010495558 0.033077598 212 221 222
0.018856347 0.010621831 0.032563329 219 229 227
0.018179119 0.010647602 0.031483769 219 228 229
0.015847862 0.010874175 0.031543732 235 245 243
0.015172541 0.010899872 0.030467153 237 246 240
0.012846828 0.01112625 0.030536056 240 247 246
0.011349142 0.011252165 0.030036569 248 251 250
0.010676622 0.011277758 0.0289644 253 253 253
0.010004103 0.01130335 0.027892232 249 250 248
0.0076887012 0.011529326 0.027977467 227 240 236
0.0070180297 0.011554852 0.026908278 221 231 222
0.0055277348 0.011680499 0.026420712 212 220 216
0.003220737 0.011906147 0.026519299 205 215 213
0.0025528669 0.011931561 0.025454521 213 220 219
0.0018849969 0.011956975 0.024389863 190 218 216
0.0012171268 0.011982389 0.023325086 126 190 175
0.0005492568 0.012007803 0.022260308 12 162 140
-0.00011855364 0.012033224 0.021195531 0 151 103
-0.00078642368 0.012058638 0.020130754 0 154 90
-0.0014542937 0.012084052 0.019065976 0 153 98
-0.0021221638 0.012109466 0.018001199 0 155 100
-0.0027900338 0.01213488 0.016936421 0 155 100
-0.0034579039 0.012160294 0.015871644 0 156 94
-0.0041257739 0.012185715 0.014806986 0 154 101
-0.0031787157 0.012011819 0.012540221 0 142 89
-0.0038484335 0.012037307 0.011472464 0 130 86
-0.0037124753 0.011963196 0.0098007917 0 121 83
-0.0043831468 0.011988714 0.0087316036 0 102 113
-0.0050537586 0.01201424 0.0076624155 0 77 131
-0.0041188002 0.011840791 0.005376339 0 66 128
-0.0047913194 0.011866383 0.0043041706 76 75 146
-0.0054638386 0.011891976 0.0032320023 112 118 174
-0.0061363578 0.011917569 0.0021598339 117 116 168
-0.006808877 0.011943161 0.0010875463 79 108 170
-0.0066832304 0.011869453 -0.00060045719 100 111 173
-0.0073567033 0.011895083 -0.0016740561 74 113 175
-0.0064375401 0.011722229 -0.003985405 61 91 164
-0.0071128607 0.011747926 -0.0050619841 2 55 133
-0.0061992407 0.011575304 -0.0073822737 0 64 126
-0.006082952 0.011501953 -0.0090850592 0 118 128
-0.0051758289 0.011329561 -0.01141572 0 133 108
-0.0058557987 0.011355437 -0.012499809 0 147 111
-0.0065357685 0.011381313 -0.013583779 0 149 105
-0.0072157383 0.011407189 -0.014667869 0 152 100
-0.0078957081 0.011433065 -0.015751958 0 157 103
-0.0077878237 0.011360034 -0.017468214 0 159 106
-0.0084687471 0.011385947 -0.018553734 0 157 102
-0.009149611 0.011411853 -0.019639373 0 153 98
-0.0098305345 0.011437766 -0.020724893 0 153 91
-0.010511458 0.011463679 -0.021810412 0 152 98
-0.0096257925 0.011292115 -0.024175048 0 157 103
-0.010308564 0.011318095 -0.025263667 0 160 107
-0.010991335 0.011344075 -0.026352167 0 159 103
-0.010893643 0.011271417 -0.028084755 0 159 103
-0.011577308 0.011297435 -0.029174805 0 160 100
-0.012261033 0.011323452 -0.030264735 0 157 103
-0.011389375 0.011152424 -0.032651782 0 160 111
-0.010521472 0.010981537 -0.035044789 0 161 108
-0.011208892 0.011007696 -0.03614068 0 162 104
-0.011121333 0.010935433 -0.0378896 0 162 102
-0.011809707 0.010961629 -0.038987041 0 163 105
-0.013271153 0.011086173 -0.039428592 0 163 105
-0.013958573 0.011112332 -0.040524483 0 165 106
-0.014645994 0.011138499 -0.041620374 0 164 109
-0.015333414 0.011164658 -0.042716384 0 165 113
-0.016020834 0.011190817 -0.043812275 0 166 114
-0.015939832 0.011118799 -0.045571685 0 164 112
-0.016628206 0.011144996 -0.046669126 0 167 114
-0.015783608 0.010974988 -0.049099088 0 167 114
-0.01647383 0.011001252 -0.050199509 0 167 117
-0.017164052 0.011027522 -0.05129993 0 165 113
-0.017090559 0.010955788 -0.053071141 0 155 102
-0.013967812 0.01049231 -0.057534337 0 141 84
-0.014663637 0.010518789 -0.058643699 0 155 101
-0.015359461 0.010545269 -0.059752941 0 162 115
-0.016055286 0.010571748 -0.060862303 0 161 113
-0.016751051 0.01059822 -0.061971545 0 159 107
0.021737516 0.0091683194 0.035198092 215 218 215
0.020228624 0.0092964247 0.034680963 228 235 234
0.017891705 0.0095267147 0.034732103 222 231 232
0.017216384 0.0095524117 0.033655524 226 236 234
0.016541064 0.0095781162 0.032578826 220 229 230
0.014211595 0.0098081306 0.032641888 234 244 242
0.013538182 0.0098337606 0.031568289 235 244 238
0.012864709 0.0098593906 0.030494571 241 248 247
0.011366963 0.0099870637 0.029995203 247 250 249
0.010694444 0.010012656 0.028923035 243 243 243
0.0083771348 0.010242209 0.029005408 234 235 232
0.0077065229 0.010267727 0.027936101 212 225 221
0.0062152147 0.010395162 0.027447224 217 227 219
0.0039063096 0.010624394 0.027542949 212 220 216
0.0032384396 0.010649808 0.026478171 206 216 214
0.0025705695 0.010675222 0.025413394 212 219 218
0.0019026995 0.010700636 0.024348736 191 219 217
0.0012348294 0.01072605 0.023283958 140 204 189
0.00056701899 0.010751463 0.022219181 23 174 152
-0.0009149313 0.010878533 0.021745086 0 156 108
-0.0015818477 0.010903917 0.020681739 0 154 90
-0.002248764 0.010929294 0.019618511 0 156 101
-0.0029156804 0.010954671 0.018555284 0 156 101
-0.0035826564 0.010980055 0.017491937 0 156 101
-0.0034402013 0.010903955 0.015830636 0 158 96
-0.0041080713 0.010929376 0.014765859 0 155 102
-0.0047758818 0.01095479 0.013701081 0 149 96
-0.0038306713 0.010777451 0.011431336 0 135 90
-0.0045003891 0.01080294 0.010363579 0 124 85
-0.0051701069 0.010828421 0.0092958212 0 107 117
-0.0050359964 0.010752641 0.0076210499 0 79 132
-0.0065095425 0.010879397 0.007160306 1 68 130
-0.0071792603 0.010904878 0.0060926676 51 50 121
-0.0070479512 0.010829203 0.0044134855 42 48 104
-0.0077186227 0.010854721 0.0033441782 60 59 111
-0.0067910552 0.01067806 0.0010462999 36 65 127
-0.0074635744 0.010703653 -2.5987625e-05 49 60 122
-0.0073388219 0.010628223 -0.0017155409 21 59 121
-0.0080122948 0.010653853 -0.0027891397 27 57 130
-0.0070949197 0.010477565 -0.0051035881 0 54 132
-0.0077702403 0.01050327 -0.0061801672 0 71 133
-0.0068584681 0.010327213 -0.0085035563 0 120 129
-0.0067430735 0.010252133 -0.010207891 0 140 115
-0.0074211955 0.010277934 -0.011289001 0 131 95
-0.0065177679 0.01010219 -0.013625741 0 100 56
-0.0071977377 0.010128066 -0.014709711 0 84 32
-0.0078777075 0.010153942 -0.0157938 0 119 65
-0.0085576773 0.010179818 -0.01687789 1 174 121
-0.0092376471 0.010205694 -0.017961979 0 173 117
-0.0099176168 0.010231569 -0.019045949 0 144 89
-0.010597587 0.010257445 -0.020130038 0 116 54
-0.010493398 0.010182798 -0.021852374 0 76 23
-0.011174262 0.010208711 -0.022937894 0 113 59
-0.010290444 0.010033712 -0.025305629 0 173 120
-0.010973215 0.010059692 -0.026394129 0 168 112
-0.011655986 0.010085672 -0.027482629 0 161 105
-0.012338758 0.01011166 -0.028571248 0 159 99
-0.012242854 0.010037325 -0.030306816 0 142 88
-0.011371195 0.009862788 -0.032693982 0 146 97
-0.012056708 0.00988888 -0.033786893 0 164 110
-0.011190653 0.0097145587 -0.036183 0 163 105
-0.011878073 0.0097407177 -0.037278891 0 162 102
-0.012565494 0.0097668767 -0.038374901 0 162 104
-0.013252914 0.0097930357 -0.039470792 0 167 108
-0.013940334 0.0098191947 -0.040566802 0 168 110
-0.014627755 0.0098453611 -0.041662693 0 147 93
-0.015315175 0.0098715201 -0.042758584 0 164 112
-0.016002595 0.0098976791 -0.043854594 1 180 128
-0.016690016 0.0099238381 -0.044950604 0 174 123
-0.016609967 0.0098500997 -0.046711445 0 169 117
-0.017298281 0.0098762959 -0.047808886 0 171 118
-0.016455531 0.0097028613 -0.050242066 0 173 123
-0.017145753 0.0097291321 -0.051342368 0 171 119
-0.017072201 0.0096556395 -0.053113699 0 159 106
-0.014712214 0.0092831105 -0.056904912 0 156 99
-0.015407085 0.0093095526 -0.058012605 0 156 102
-0.015340984 0.0092363507 -0.059795737 5 166 119
-0.016036808 0.00926283 -0.060905099 0 169 121
-0.016732633 0.0092893019 -0.062014461 0 161 110
0.022145152 0.0083124787 0.047108769 148 169 200
0.021472633 0.0083380714 0.046036601 171 178 197
0.020800114 0.0083636642 0.044964433 191 188 196
0.019260228 0.0082049668 0.036843896 206 210 198
0.018584967 0.0082306638 0.035767198 236 215 209
0.016249835 0.008464396 0.035821557 225 228 225
0.015576363 0.008490026 0.034747839 214 234 230
0.014902949 0.0085156485 0.033674121 213 225 224
0.014229476 0.0085412785 0.032600522 237 244 243
0.013556004 0.0085669085 0.031526804 241 241 241
0.012057364 0.0086963624 0.031026006 247 247 247
0.011384845 0.0087219551 0.029953837 248 249 246
0.0090656281 0.0089550763 0.03003335 227 238 234
0.0083949566 0.008980602 0.028964162 220 228 224
0.0077242851 0.0090061203 0.027894855 221 226 223
0.0062329769 0.0091353133 0.027406096 221 226 220
0.0039240122 0.0093680471 0.027501941 214 220 214
0.0032561421 0.009393461 0.026437163 211 218 212
0.0025882721 0.009418875 0.025372386 213 221 217
0.0019204617 0.0094442889 0.024307609 193 219 217
0.0012525916 0.0094697028 0.023242831 139 214 209
-0.00023025274 0.0095985681 0.022767305 78 184 174
-0.00089722872 0.0096239448 0.021704078 0 151 110
-0.0015641451 0.0096493289 0.020640731 0 155 100
-0.0022310615 0.0096747056 0.019577503 0 155 105
-0.0028980374 0.0097000822 0.018514156 0 154 101
-0.0035649538 0.0097254664 0.017450929 0 153 100
-0.0042318702 0.009750843 0.016387582 0 155 105
-0.0048987865 0.0097762272 0.015324354 0 157 110
-0.0047581792 0.0096984431 0.013660073 0 153 107
-0.0054260492 0.009723857 0.012595296 0 138 83
-0.0060939193 0.009749271 0.011530519 0 131 80
-0.0051523447 0.009568572 0.0092545748 0 123 83
-0.0058220625 0.0095940605 0.0081869364 0 111 95
-0.0064917803 0.0096195489 0.0071191788 4 92 101
-0.0071614981 0.0096450299 0.0060514212 0 69 112
-0.0078312755 0.0096705183 0.0049836636 0 51 117
-0.0085009933 0.0096960068 0.003915906 0 42 130
-0.0083714724 0.0096186399 0.0022337437 0 41 130
-0.0074457526 0.0094385445 -6.7353249e-05 0 36 130
-0.0081182718 0.0094641373 -0.0011395216 0 44 128
-0.0079944134 0.0093870014 -0.0028306246 0 52 130
-0.0086678863 0.0094126239 -0.0039043427 11 69 121
-0.0077523589 0.0092329159 -0.0062217712 0 85 121
-0.0084276199 0.009258613 -0.0072983503 0 122 126
-0.0075176954 0.0090791136 -0.0096248388 40 140 119
-0.0074031949 0.0090023279 -0.011330724 36 96 59
-0.0080813169 0.0090281367 -0.012411833 0 75 42
-0.008759439 0.0090539381 -0.013492942 0 73 0
-0.009437561 0.0090797469 -0.014574051 0 74 0
-0.010115623 0.0091055483 -0.01565516 25 140 101
-0.0092195868 0.0089265779 -0.018003821 88 158 128
-0.0098995566 0.0089524537 -0.019087911 0 140 98
-0.010579526 0.0089783296 -0.020171881 0 103 71
-0.011259496 0.0090042055 -0.02125597 0 75 0
-0.011939466 0.0090300813 -0.022340059 0 71 0
-0.011837125 0.0089537501 -0.024065375 61 115 35
-0.012518048 0.0089796558 -0.025150895 39 157 90
-0.011637866 0.0088013038 -0.02752471 0 165 113
-0.012320638 0.0088272914 -0.02861321 0 156 105
-0.013003409 0.0088532716 -0.02970171 0 117 41
-0.012908459 0.0087772086 -0.031438947 0 116 55
-0.012038529 0.0085992441 -0.033829093 0 161 111
-0.011172414 0.0084214211 -0.036225319 0 164 112
-0.011859834 0.00844758 -0.03732121 0 162 108
-0.012547255 0.008473739 -0.03841722 0 163 109
-0.013234675 0.008499898 -0.039513111 0 162 118
-0.013922095 0.008526057 -0.040609002 41 159 119
-0.016151905 0.0087557733 -0.040387034 48 124 82
-0.016837478 0.0087818652 -0.041479945 0 120 75
-0.015984356 0.0086045414 -0.043896914 31 150 106
-0.016671836 0.0086307004 -0.044992805 51 170 114
-0.016591668 0.0085552037 -0.046753764 0 167 118
-0.017280042 0.0085813999 -0.047851205 0 171 121
-0.016437173 0.0084044561 -0.050284505 0 174 123
-0.017127454 0.0084307268 -0.051384926 0 172 119
-0.017053902 0.0083554983 -0.053156257 0 171 122
-0.016219378 0.0081788674 -0.055602908 1 165 123
-0.016912401 0.008205235 -0.05670774 0 159 108
-0.016083539 0.0080288276 -0.059163213 6 171 113
-0.016778409 0.0080552697 -0.060271144 0 171 125
-0.016714156 0.0079803988 -0.062057137 0 159 119
0.023167193 0.0071575269 0.052445531 137 141 157
0.022496521 0.0071830526 0.051376343 135 137 158
0.02182591 0.0072085708 0.050307155 116 130 155
0.021155238 0.0072340965 0.049237967 54 118 144
0.022162974 0.0070473775 0.047067404 96 118 149
0.021490455 0.0070729703 0.045995235 110 117 137
0.020817935 0.007098563 0.044923067 142 140 147
0.018472612 0.0073361769 0.044961095 183 187 193
0.01780194 0.0073617026 0.043891788 183 184 188
0.019278169 0.0069346055 0.036802292 141 145 133
0.018602848 0.0069603026 0.035725594 218 197 192
0.016267717 0.007197544 0.035780072 226 229 227
0.015594244 0.007223174 0.034706354 224 243 240
0.014920771 0.0072487965 0.033632636 230 242 240
0.014247358 0.0072744265 0.032559037 255 255 255
0.013573885 0.0073000565 0.031485438 254 254 254
0.012075186 0.0074312612 0.03098464 239 239 239
0.0097540617 0.0076679587 0.031061292 228 229 227
0.0090833902 0.0076934844 0.029991984 214 225 221
0.0084127188 0.0077190027 0.028922915 214 222 218
0.0069204569 0.0078499764 0.028432488 216 222 218
0.0046095848 0.0080862865 0.028525472 218 222 217
0.0039417148 0.0081117079 0.027460814 212 219 213
0.0032739043 0.0081371218 0.026396036 210 217 211
0.0026060343 0.0081625357 0.025331259 212 220 216
0.0019381642 0.0081879497 0.024266481 197 222 220
0.0012702942 0.0082133636 0.023201704 145 220 214
-0.00021260977 0.0083439797 0.022726178 92 198 188
-0.00087952614 0.0083693564 0.021662951 0 164 123
-0.0015464425 0.0083947405 0.020599723 0 155 100
-0.0022134185 0.0084201172 0.019536376 0 155 105
-0.0028803349 0.0084454939 0.018473148 0 155 102
-0.0035472512 0.008470878 0.017409921 0 134 81
-0.0042141676 0.0084962547 0.016346574 0 152 102
-0.004881084 0.0085216388 0.015283346 2 165 118
-0.0055480599 0.0085470155 0.014220119 3 160 114
-0.0054083467 0.0084675178 0.012554169 0 136 82
-0.0060762167 0.0084929317 0.011489391 0 131 80
-0.0067440867 0.0085183457 0.010424614 0 127 86
-0.0074119568 0.0085437596 0.0093598366 0 116 100
-0.0080797672 0.008569181 0.0082950592 26 115 123
-0.0087476373 0.0085945949 0.007230401 2 90 133
-0.0078135133 0.0084106699 0.0049425364 6 74 140
-0.0084832311 0.0084361583 0.0038747787 1 59 148
-0.0083537102 0.0083570406 0.0021924973 2 54 143
-0.0090243816 0.0083825588 0.0011233091 0 53 146
-0.00810045 0.0081990361 -0.0011808872 7 63 147
-0.0087729692 0.0082246289 -0.0022531748 0 63 141
-0.0086500049 0.0081457719 -0.0039457083 32 90 142
-0.0093234777 0.0081714019 -0.0050194263 0 99 135
-0.0084097385 0.0079882517 -0.0073399544 0 120 125
-0.0074996948 0.007805258 -0.0096664429 10 111 90
-0.0081769228 0.0078310221 -0.010746121 11 72 34
-0.0080633163 0.0077525154 -0.012453556 0 30 0
-0.0087414384 0.0077783167 -0.013534665 0 42 0
-0.0094195604 0.0078041255 -0.014615774 0 29 0
-0.010097682 0.0078299269 -0.015696883 0 89 50
-0.010775745 0.0078557357 -0.016777992 22 91 62
-0.011453867 0.0078815371 -0.017859101 0 101 60
-0.010561526 0.007699199 -0.020213723 0 76 44
-0.011241496 0.0077250749 -0.021297812 0 61 0
-0.011921465 0.0077509508 -0.022381902 0 48 0
-0.012601435 0.0077768266 -0.023465991 8 62 0
-0.013281405 0.0078027025 -0.02455008 6 124 57
-0.013180852 0.0077246949 -0.026278377 0 178 126
-0.013861775 0.007750608 -0.027363896 9 170 119
-0.012985289 0.0075688884 -0.029743791 0 58 0
-0.012890339 0.007491082 -0.031481028 0 48 0
-0.01202035 0.0073096082 -0.033871293 0 174 124
-0.012705922 0.0073356926 -0.034964323 1 180 128
-0.013391495 0.0073617846 -0.036057353 0 172 117
-0.014077008 0.0073878691 -0.037150264 0 172 119
-0.01476258 0.007413961 -0.038243175 0 146 102
-0.015448153 0.0074400455 -0.039336205 0 111 72
-0.016133726 0.0074661374 -0.040429235 12 87 46
-0.016819298 0.0074922293 -0.041522145 0 100 55
-0.015966117 0.0073113963 -0.043939233 0 87 43
-0.016653597 0.0073375553 -0.045035124 0 105 49
-0.016573429 0.0072603151 -0.046796203 0 161 113
-0.015728652 0.0070798025 -0.049226642 0 178 128
-0.016418874 0.0071060658 -0.050326943 0 174 123
-0.017109096 0.0071323365 -0.051427364 0 172 119
-0.017799318 0.0071585998 -0.052527785 0 171 122
-0.017726719 0.0070816576 -0.054300666 0 154 111
-0.016893983 0.0069015846 -0.056750417 0 146 95
-0.017587006 0.0069279596 -0.057855248 0 159 100
-0.016759932 0.0067481175 -0.060313821 0 184 138
-0.016695678 0.0066714883 -0.062100053 0 166 126
0.029220879 0.0056662336 0.062027216 169 189 218
0.02399534 0.006092906 0.059362531 130 162 202
0.02332747 0.0061183199 0.058297753 120 157 194
0.0226596 0.0061437339 0.057232976 111 150 196
0.023681402 0.0059529841 0.055084586 104 145 193
0.023011684 0.0059784725 0.054016829 77 137 189
0.022341967 0.0060039535 0.052949071 53 116 181
0.021672189 0.006029442 0.051881433 47 108 171
0.021002471 0.0060549304 0.050813675 31 103 171
0.021173 0.0059724972 0.049196601 36 93 166
0.022180796 0.0057822689 0.047026038 0 89 170
0.021508276 0.0058078617 0.04595387 0 86 155
0.020835757 0.0058334544 0.044881701 77 108 171
0.018490374 0.0060745776 0.044919848 158 164 195
0.017819703 0.0061001033 0.043850541 162 176 196
0.016314387 0.0062333345 0.04333961 121 167 178
0.01564467 0.0062588155 0.042271852 87 154 163
0.015807748 0.0061766654 0.040642977 52 125 104
0.017632484 0.0058794171 0.037885904 43 121 113
0.016959012 0.0059050396 0.036812305 188 200 189
0.016285539 0.0059306696 0.035738587 232 233 228
0.015612125 0.0059562996 0.034664989 237 245 242
0.014938653 0.0059819221 0.03359127 248 246 244
0.01426518 0.0060075521 0.032517552 255 255 255
0.013591766 0.0060331821 0.031443954 253 253 253
0.012093008 0.0061661527 0.030943274 229 230 228
0.0097718239 0.0064063594 0.031020045 219 227 223
0.0091011524 0.0064318776 0.029950738 209 226 224
0.0076079965 0.006564647 0.029459119 210 218 219
0.0069382191 0.0065901354 0.028391361 215 216 214
0.004627347 0.0068299398 0.028484464 208 214 209
0.0039594769 0.0068553612 0.027419686 214 216 211
0.0024728179 0.0069878623 0.026938319 211 219 211
0.0018059015 0.0070132464 0.025874972 214 220 214
0.0011389852 0.0070386231 0.024811745 202 222 216
0.00047200918 0.0070639998 0.023748517 175 227 220
-0.00019490719 0.0070893839 0.02268517 122 203 193
-0.00086182356 0.0071147606 0.021621943 0 169 134
-0.0015287399 0.0071401447 0.020558715 0 160 113
-0.0021957159 0.0071655214 0.019495368 0 159 110
-0.0028626323 0.0071908981 0.01843214 38 153 109
-0.0035295486 0.0072162822 0.017368913 40 128 77
-0.004196465 0.0072416589 0.016305566 0 114 57
-0.004863441 0.007267043 0.015242219 55 120 71
-0.0055303574 0.0072924197 0.014178991 23 141 88
-0.0061972737 0.0073177963 0.013115764 0 137 81
-0.0068641901 0.0073431805 0.012052417 0 137 73
-0.0067263246 0.007261999 0.010383487 0 135 67
-0.0073941946 0.0072874129 0.0093187094 0 135 67
-0.0080620646 0.0073128343 0.008253932 0 131 85
-0.0087299347 0.0073382482 0.0071892738 0 124 102
-0.0077957511 0.0071508288 0.0049012899 0 104 96
-0.0084654689 0.0071763173 0.0038335323 0 96 112
-0.0083358884 0.0070954412 0.0021511316 4 89 107
-0.0090065598 0.0071209595 0.0010819435 0 82 109
-0.0080825686 0.0069339275 -0.0012222528 10 90 104
-0.0087551475 0.0069595203 -0.0022944212 0 92 109
-0.0094276071 0.006985113 -0.0033667088 0 111 107
-0.0093055964 0.0069045275 -0.005060792 0 123 119
-0.0099790692 0.0069301575 -0.00613451 0 125 107
-0.0090671182 0.0067435876 -0.0084582567 0 101 64
-0.0081589222 0.0065571517 -0.010787725 2 65 0
-0.0088360906 0.0065829232 -0.011867404 0 31 0
-0.0087234378 0.0065027028 -0.013576388 40 22 0
-0.0094015598 0.0065285116 -0.014657497 0 6 0
-0.010079682 0.006554313 -0.015738606 0 75 23
-0.010757804 0.0065801218 -0.016819715 0 90 49
-0.011435926 0.0066059232 -0.017900825 18 87 44
-0.012113988 0.006631732 -0.018981814 0 70 7
-0.01279211 0.0066575333 -0.020063043 0 56 0
-0.013470232 0.0066833422 -0.021144032 0 62 0
-0.012583375 0.0064977109 -0.023507833 69 79 2
-0.013263345 0.0065235868 -0.024591804 33 109 46
-0.013943315 0.0065494627 -0.025675893 0 150 114
-0.014623284 0.0065753385 -0.026759982 115 151 120
-0.012967169 0.00628452 -0.029785752 23 51 0
-0.012872159 0.0062049478 -0.031523108 0 35 0
-0.01200217 0.0060199797 -0.033913493 19 149 114
-0.012687743 0.0060460642 -0.035006523 79 164 127
-0.013373315 0.0060721561 -0.036099434 11 163 124
-0.014058828 0.0060982406 -0.037192464 56 163 123
-0.014744401 0.0061243325 -0.038285375 0 120 70
-0.015429974 0.006150417 -0.039378405 0 82 34
-0.016115546 0.006176509 -0.040471435 19 93 63
-0.016801119 0.0062026009 -0.041564345 1 95 78
-0.015947938 0.0060182586 -0.043981552 0 86 28
-0.016635358 0.0060444176 -0.045077443 0 85 16
-0.01655519 0.0059654266 -0.046838522 55 142 85
-0.015710354 0.0057814047 -0.04926908 52 170 128
-0.016400576 0.005807668 -0.050369382 0 174 127
-0.017090797 0.0058339387 -0.051469922 0 174 123
-0.017781019 0.005860202 -0.052570224 0 168 123
-0.017708361 0.0057815015 -0.054343104 0 154 106
-0.018399537 0.0058078095 -0.055445075 16 154 96
-0.017568648 0.0056243017 -0.057897925 0 153 98
-0.016741514 0.0054409578 -0.060356617 8 172 130
-0.017436385 0.0054674 -0.061464429 22 166 125
0.029909372 0.0043791234 0.063055158 138 148 171
0.029238701 0.0044046417 0.06198597 82 102 131
0.028568029 0.0044301674 0.060916781 68 96 128
0.024680912 0.0048111528 0.060386181 56 91 124
0.023165405 0.0049465075 0.059858799 56 88 129
0.022498429 0.0049718842 0.058795571 49 86 123
0.022677302 0.0048873946 0.057191849 44 83 129
0.022009492 0.0049128085 0.056127071 47 88 136
0.021341622 0.0049382225 0.055062413 35 95 147
0.020673752 0.0049636438 0.053997636 37 99 164
0.021689951 0.0047695935 0.051840186 67 128 191
0.021020234 0.0047950819 0.050772429 47 120 187
0.021190822 0.0047109053 0.049155354 47 105 177
0.022198677 0.0045171604 0.046984673 0 103 184
0.021526158 0.0045427531 0.045912504 0 94 163
0.020853639 0.0045683458 0.044840217 70 101 164
0.018508196 0.0048129857 0.044878602 135 140 171
0.017837524 0.0048385113 0.043809295 136 149 170
0.01633215 0.0049734861 0.043298364 106 152 163
0.015662432 0.0049989671 0.042230606 70 138 147
0.01582557 0.0049150735 0.040601611 45 118 97
0.015154898 0.0049405992 0.039532423 44 122 114
0.016145945 0.0047474951 0.037335038 190 203 192
0.015473425 0.0047730878 0.036262751 233 234 230
0.014800906 0.0047986731 0.035190582 231 239 236
0.014128387 0.0048242658 0.034118414 244 243 241
0.013455868 0.0048498586 0.033046246 254 249 250
0.012783349 0.0048754513 0.031974077 248 248 248
0.012110829 0.0049010441 0.030901909 225 225 223
0.0097896457 0.0051447675 0.030978799 219 227 223
0.0091189742 0.0051702857 0.029909492 209 226 224
0.0076257586 0.0053047985 0.029417872 211 220 220
0.0053129196 0.0055481866 0.029508114 217 217 215
0.0046450496 0.0055736005 0.028443336 211 218 212
0.0039771795 0.0055990219 0.027378559 218 219 214
0.0024905205 0.0057332739 0.026897311 211 219 211
0.0018236041 0.0057586581 0.025833964 211 218 212
0.0011566281 0.0057840347 0.024770737 202 222 216
0.00048971176 0.0058094114 0.023707509 177 229 223
-0.00017720461 0.0058347955 0.022644162 136 217 206
-0.00084412098 0.0058601722 0.021580935 0 174 140
-0.0031374693 0.0061028302 0.021702409 0 162 115
-0.0038025379 0.0061281398 0.020642042 0 159 110
-0.0044676065 0.0061534494 0.019581795 34 148 105
-0.0035118461 0.0059616938 0.017327785 39 126 76
-0.004178822 0.0059870705 0.016264558 0 114 57
-0.0048457384 0.0060124546 0.015201211 14 78 29
-0.0055126548 0.0060378313 0.014137983 1 119 66
-0.0061795712 0.006063208 0.013074756 0 145 89
-0.0068465471 0.0060885921 0.012011409 0 141 78
-0.0075134635 0.0061139688 0.010948181 0 135 67
-0.0081803799 0.0061393529 0.0098848343 0 136 69
