ply
format ascii 1.0
comment Created by CloudCompare v2.10.2 (Zephyrus)
comment Created 2021/9/8 5:47
obj_info Generated by CloudCompare!
element vertex 1081
property float x
property float y
property float z
property uchar red
property uchar green
property uchar blue
end_header
-0.00898165 -0.00192166 -0.00242233 36 67 76 
-0.00968933 -0.00189444 -0.00355315 0 74 95 
-0.00959402 -0.0020055 -0.00529432 75 84 110 
-0.0103027 -0.00197824 -0.00642669 62 27 44 
-0.0110113 -0.00195099 -0.00755894 0 0 0 
-0.0101195 -0.00220006 -0.00992084 34 64 91 
-0.01083 -0.00217273 -0.0110561 61 77 125 
-0.0115404 -0.0021454 -0.0121914 24 36 114 
-0.0106561 -0.00239419 -0.0145651 15 17 121 
-0.0105718 -0.00250482 -0.0163242 17 9 120 
-0.0112851 -0.00247739 -0.0174639 8 10 119 
-0.0104092 -0.00272586 -0.0198511 5 5 121 
-0.0111243 -0.00269835 -0.0209938 6 7 121 
-0.0118394 -0.00267085 -0.0221364 11 4 119 
-0.0109708 -0.00291903 -0.0245355 16 7 120 
-0.010106 -0.00316706 -0.0269405 8 10 119 
-0.0100349 -0.0032772 -0.0287204 4 10 116 
-0.0107546 -0.00324951 -0.0298705 1 5 114 
-0.00989813 -0.00349725 -0.0322889 0 7 107 
-0.0106198 -0.00346949 -0.033442 0 0 91 
-0.0113414 -0.00344173 -0.0345951 0 27 95 
-0.0104924 -0.00368915 -0.0370253 0 137 169 
-0.0112159 -0.00366133 -0.0381814 23 157 177 
-0.0103725 -0.00390854 -0.0406206 0 147 173 
-0.0103152 -0.00401812 -0.0424227 0 141 172 
-0.0110415 -0.0039902 -0.0435833 0 128 165 
-0.0102064 -0.00423711 -0.0460358 0 125 163 
-0.0109345 -0.00420909 -0.0471994 0 125 164 
-0.0116627 -0.00418109 -0.0483629 0 127 170 
-0.0108351 -0.00442769 -0.0508273 0 155 184 
-0.0100111 -0.00467416 -0.0532976 0 157 179 
-0.010743 -0.004646 -0.0544671 0 155 180 
-0.00992465 -0.00489227 -0.0569464 0 147 178 
-0.0106584 -0.00486404 -0.0581188 0 129 166 
-0.0113921 -0.00483582 -0.0592912 39 126 166 
-0.0121258 -0.0048076 -0.0604637 90 131 165 
-0.0128596 -0.00477938 -0.0616361 99 134 158 
-0.0135933 -0.00475115 -0.0628085 111 130 147 
0.0322429 -0.00549496 0.052016 157 180 187 
0.0315297 -0.00546753 0.0508763 162 178 192 
0.0308164 -0.00544009 0.0497366 136 151 162 
0.0301031 -0.00541265 0.0485967 140 152 162 
0.0293899 -0.00538521 0.0474571 155 164 172 
0.0303718 -0.00564129 0.0452392 162 164 173 
0.0296567 -0.00561378 0.0440965 166 170 179 
0.0289416 -0.00558627 0.0429538 169 166 175 
0.0282264 -0.00555877 0.0418111 165 162 172 
0.0291992 -0.00581445 0.0395783 167 167 181 
0.0284823 -0.00578687 0.0384327 181 197 210 
0.0277653 -0.00575928 0.037287 168 175 195 
0.0270483 -0.0057317 0.0361413 64 85 132 
0.0263313 -0.00570412 0.0349957 72 73 145 
0.0239357 -0.00539372 0.0349549 76 51 139 
0.0232205 -0.00536621 0.0338122 36 16 131 
0.0225054 -0.00533871 0.0326694 39 6 130 
0.0201173 -0.00502854 0.0326406 24 81 183 
0.0194041 -0.00500111 0.0315008 156 195 248 
0.0178561 -0.00483242 0.030921 126 167 208 
0.0154763 -0.00452261 0.0309054 41 136 164 
0.0131002 -0.00421294 0.0308958 113 135 152 
0.0123916 -0.00418568 0.0297636 129 177 203 
0.011683 -0.00415843 0.0286312 134 189 208 
0.0101444 -0.00399009 0.0280663 137 204 228 
0.00777853 -0.0036808 0.028073 15 183 204 
0.00707269 -0.00365365 0.0269451 0 148 145 
0.00471246 -0.0033446 0.0269608 13 146 122 
0.00400847 -0.00331752 0.025836 28 179 184 
0.00165373 -0.00300869 0.0258605 141 200 215 
0.000127256 -0.0028408 0.0253149 147 207 218 
-0.000573933 -0.00281383 0.0241945 153 193 200 
-0.00127512 -0.00278686 0.023074 132 172 168 
-0.00197631 -0.00275989 0.0219537 96 166 148 
-0.0026775 -0.00273292 0.0208333 24 159 149 
-0.00337869 -0.00270595 0.0197128 70 130 134 
-0.00407988 -0.00267898 0.0185924 42 72 76 
-0.00478107 -0.002652 0.0174719 16 19 30 
-0.0054822 -0.00262503 0.0163516 69 8 20 
-0.00618339 -0.00259806 0.0152311 74 30 37 
-0.00606948 -0.0027116 0.0135196 100 123 129 
-0.00677156 -0.0026846 0.0123978 146 121 120 
-0.00747371 -0.00265758 0.0112759 101 74 74 
-0.00817579 -0.00263058 0.0101539 110 64 46 
-0.00887793 -0.00260357 0.00903201 29 11 0 
-0.00795901 -0.00285718 0.00671303 34 31 20 
-0.008663 -0.0028301 0.00558817 105 123 123 
-0.00774974 -0.0030835 0.00326025 94 96 130 
-0.00684023 -0.00333676 0.000926614 50 0 27 
-0.00754791 -0.00330956 -0.000204206 25 36 45 
-0.0082556 -0.00328233 -0.00133502 53 93 98 
-0.00815839 -0.00339522 -0.00307333 59 91 99 
-0.00886703 -0.00336795 -0.0042057 0 74 95 
-0.00957566 -0.0033407 -0.00533795 51 61 87 
-0.0102842 -0.00331344 -0.00647032 31 0 13 
-0.0109929 -0.00328619 -0.00760257 0 0 0 
-0.010101 -0.00353877 -0.00996459 30 59 86 
-0.0108115 -0.00351144 -0.0110999 53 69 117 
-0.011522 -0.00348411 -0.0122352 23 35 113 
-0.0106376 -0.0037364 -0.014609 13 14 119 
-0.0113499 -0.003709 -0.0157473 13 6 116 
-0.0112666 -0.00382134 -0.0175079 4 6 115 
-0.0119799 -0.0037939 -0.0186476 9 8 125 
-0.0111057 -0.00404582 -0.0210378 10 10 124 
-0.0118209 -0.00401831 -0.0221806 14 7 122 
-0.0109522 -0.00426999 -0.0245796 16 7 120 
-0.0100873 -0.00452154 -0.0269848 9 11 120 
-0.0100161 -0.00463343 -0.0287647 7 12 118 
-0.0107359 -0.00460574 -0.0299149 1 5 114 
-0.00987941 -0.00485697 -0.0323334 0 2 102 
-0.010601 -0.00482921 -0.0334865 33 26 127 
-0.0113227 -0.00480144 -0.0346396 1 47 114 
-0.0104736 -0.0050524 -0.0370699 0 140 173 
-0.0111971 -0.00502457 -0.038226 10 145 164 
-0.0103536 -0.00527527 -0.0406653 0 140 166 
-0.0102963 -0.00538661 -0.0424675 0 133 164 
-0.0110226 -0.00535869 -0.043628 0 126 163 
-0.0101875 -0.00560909 -0.0460807 0 125 163 
-0.0109156 -0.00558107 -0.0472442 0 129 169 
-0.0100861 -0.00583127 -0.0497057 0 131 173 
-0.00926024 -0.00608131 -0.0521733 0 161 190 
-0.00999212 -0.00605316 -0.0533427 0 163 185 
-0.010724 -0.00602499 -0.0545122 0 153 178 
-0.0114558 -0.00599685 -0.0556816 0 143 175 
-0.0106393 -0.00624654 -0.058164 0 132 170 
-0.011373 -0.00621832 -0.0593364 51 137 178 
-0.0121068 -0.0061901 -0.0605088 108 149 184 
-0.0128405 -0.00616188 -0.0616813 112 147 171 
-0.0135742 -0.00613365 -0.0628537 126 145 162 
0.0322614 -0.00683893 0.051972 159 179 187 
0.0315481 -0.00681149 0.0508324 161 180 193 
0.0308349 -0.00678406 0.0496926 128 152 162 
0.0301216 -0.00675661 0.0485529 128 149 153 
0.0294083 -0.00672918 0.0474131 155 164 172 
0.0303904 -0.00698874 0.0451951 160 164 173 
0.0296753 -0.00696123 0.0440525 161 163 172 
0.0289602 -0.00693373 0.0429097 161 164 170 
0.028245 -0.00690622 0.041767 158 162 171 
0.0292179 -0.00716543 0.0395342 168 164 174 
0.0285009 -0.00713785 0.0383885 189 193 206 
0.0277839 -0.00711027 0.0372428 181 181 195 
0.0270669 -0.00708269 0.0360972 80 96 123 
0.02635 -0.0070551 0.0349514 79 89 126 
0.0239542 -0.00674117 0.0349108 61 67 130 
0.0232391 -0.00671367 0.0337681 25 25 132 
0.022524 -0.00668616 0.0326253 82 37 131 
0.0201358 -0.0063725 0.0325966 151 101 161 
0.0194226 -0.00634507 0.0314568 190 163 195 
0.0178745 -0.00617463 0.030877 210 156 183 
0.0154948 -0.00586132 0.0308616 180 135 133 
0.0131186 -0.00554813 0.0308522 129 112 121 
0.01241 -0.00552087 0.0297198 199 158 171 
0.0108705 -0.00535076 0.0291535 189 150 170 
0.0101628 -0.00532354 0.0280226 192 162 189 
0.00779688 -0.00501075 0.0280296 149 180 209 
0.00709105 -0.0049836 0.0269016 43 152 173 
0.00473076 -0.00467104 0.0269175 11 141 166 
0.00402677 -0.00464396 0.0257926 75 164 183 
0.00167197 -0.00433161 0.0258173 154 178 195 
0.000969887 -0.0043046 0.0246954 189 182 190 
-0.000555754 -0.004135 0.0241512 182 176 165 
-0.00125694 -0.00410803 0.0230309 170 172 167 
-0.00195813 -0.00408106 0.0219104 132 174 165 
-0.00265926 -0.00405408 0.02079 46 158 151 
-0.00336045 -0.00402711 0.0196697 64 131 134 
-0.00406164 -0.00400014 0.0185492 21 73 74 
-0.00476283 -0.00397317 0.0174288 12 9 16 
-0.00546402 -0.0039462 0.0163083 63 10 12 
-0.00616521 -0.00391923 0.0151879 82 20 16 
-0.0068664 -0.00389226 0.0140675 111 54 54 
-0.00675333 -0.00400753 0.0123545 120 69 64 
-0.00745547 -0.00398051 0.0112325 105 84 87 
-0.00815755 -0.00395351 0.0101107 99 84 82 
-0.00885969 -0.00392649 0.00898874 35 0 0 
-0.00794071 -0.00418362 0.00666964 56 0 0 
-0.0086447 -0.00415654 0.00554478 132 115 118 
-0.00773144 -0.00441345 0.00321686 137 125 127 
-0.00843722 -0.0043863 0.00208902 37 17 34 
-0.0075295 -0.004643 -0.000247836 15 28 37 
-0.00823718 -0.00461578 -0.00137866 0 88 98 
-0.00894493 -0.00458855 -0.00250947 30 94 107 
-0.00884861 -0.00470314 -0.00424933 0 84 104 
-0.00955725 -0.00467589 -0.0053817 0 38 78 
-0.0102659 -0.00464863 -0.00651395 45 0 14 
-0.0109745 -0.00462138 -0.0076462 0 0 0 
-0.0116831 -0.00459411 -0.00877857 37 58 89 
-0.010793 -0.00485014 -0.0111436 52 71 121 
-0.0115035 -0.00482281 -0.0122789 26 44 118 
-0.010619 -0.00507861 -0.0146528 15 25 124 
-0.0113314 -0.0050512 -0.0157912 10 22 120 
-0.0112481 -0.0051653 -0.0175518 0 2 113 
-0.0119613 -0.00513787 -0.0186915 2 6 115 
-0.0110872 -0.00539327 -0.0210818 8 9 120 
-0.0118023 -0.00536577 -0.0222245 4 10 116 
-0.0109336 -0.00562097 -0.0246239 4 10 116 
-0.0100687 -0.00587603 -0.0270292 4 10 116 
-0.00999743 -0.00598964 -0.0288091 16 18 114 
-0.0107172 -0.00596195 -0.0299592 34 9 102 
-0.00986063 -0.00621671 -0.0323778 0 3 84 
-0.0105823 -0.00618895 -0.033531 0 65 116 
-0.011304 -0.00616119 -0.0346841 0 91 139 
-0.0104548 -0.00641561 -0.0371145 14 141 169 
-0.0111783 -0.00638779 -0.0382706 0 143 163 
-0.0103347 -0.00664202 -0.04071 0 139 163 
-0.0102775 -0.00675511 -0.0425122 0 132 161 
-0.0110037 -0.00672718 -0.0436727 19 127 157 
-0.0101686 -0.00698108 -0.0461255 0 122 150 
-0.0108967 -0.00695307 -0.047289 0 129 162 
-0.0100671 -0.00720677 -0.0497507 0 135 172 
-0.0107971 -0.00717869 -0.0509173 0 161 189 
-0.00997311 -0.00743217 -0.0533878 15 164 183 
-0.010705 -0.00740401 -0.0545573 0 147 176 
-0.0114368 -0.00737586 -0.0557267 0 135 172 
-0.0121687 -0.00734771 -0.0568962 0 133 170 
-0.011354 -0.00760084 -0.0593816 66 138 174 
-0.0120877 -0.00757261 -0.0605541 108 153 180 
-0.0128214 -0.00754439 -0.0617265 112 149 166 
-0.0135552 -0.00751617 -0.0628989 100 143 164 
0.03228 -0.00818291 0.0519282 160 180 188 
0.0315667 -0.00815547 0.0507884 163 181 194 
0.0308535 -0.00812804 0.0496486 132 156 166 
0.0301402 -0.00810059 0.0485089 132 154 157 
0.0294269 -0.00807316 0.0473691 155 164 172 
0.030409 -0.00833622 0.0451511 163 167 175 
0.0296938 -0.00830872 0.0440084 161 163 172 
0.0289787 -0.00828121 0.0428656 161 164 170 
0.0282636 -0.0082537 0.0417229 158 162 171 
0.0275485 -0.00822619 0.0405803 166 163 173 
0.0285195 -0.00848882 0.0383443 186 191 204 
0.0278025 -0.00846124 0.0371987 176 176 190 
0.0270855 -0.00843365 0.0360529 80 96 123 
0.0263686 -0.00840607 0.0349072 59 69 106 
0.0239728 -0.00808866 0.0348667 64 70 133 
0.0232577 -0.00806115 0.033724 48 48 155 
0.0225425 -0.00803364 0.0325813 133 88 182 
0.0201544 -0.00771648 0.0325526 154 104 165 
0.0194411 -0.00768905 0.031413 125 98 130 
0.0178931 -0.00751684 0.0308331 146 92 119 
0.0155132 -0.00720003 0.0308179 187 142 140 
0.013137 -0.00688333 0.0308086 158 141 150 
0.0124284 -0.00685608 0.0296762 249 208 221 
0.0108888 -0.00668421 0.0291098 234 196 216 
0.0101811 -0.00665698 0.027979 145 115 143 
0.00781518 -0.00634069 0.027986 103 135 164 
0.00710934 -0.00631354 0.0268582 78 187 208 
0.004749 -0.00599748 0.0268741 39 169 194 
0.00404507 -0.0059704 0.0257492 53 142 161 
0.00169021 -0.00565454 0.0257741 127 151 168 
0.000988126 -0.00562752 0.0246521 161 154 162 
0.000285983 -0.00560052 0.0235302 177 171 161 
-0.0012387 -0.00542922 0.0229877 173 175 170 
-0.00193989 -0.00540225 0.0218672 131 173 164 
-0.00264108 -0.00537528 0.0207468 48 159 152 
-0.00334227 -0.00534831 0.0196264 62 129 132 
-0.00404346 -0.00532134 0.0185059 21 73 74 
-0.00474459 -0.00529437 0.0173856 19 16 23 
-0.00544578 -0.0052674 0.0162652 56 3 5 
-0.00614697 -0.00524043 0.0151447 59 0 0 
-0.00684816 -0.00521345 0.0140244 45 0 0 
-0.00673509 -0.00533045 0.0123112 39 0 0 
-0.00743723 -0.00530344 0.0111893 105 84 87 
-0.00813931 -0.00527643 0.0100673 100 85 83 
-0.00884145 -0.00524942 0.00894547 37 0 0 
-0.00792247 -0.00551006 0.00662625 57 0 0 
-0.0086264 -0.00548299 0.00550139 119 102 105 
-0.00771308 -0.00574339 0.00317335 113 100 102 
-0.00841892 -0.00571624 0.00204551 16 0 13 
-0.00751114 -0.00597645 -0.000291467 12 24 34 
-0.00821882 -0.00594922 -0.00142229 0 70 81 
-0.00892651 -0.005922 -0.00255311 23 87 100 
-0.0096342 -0.00589477 -0.00368392 0 94 114 
-0.00953883 -0.00601109 -0.00542533 38 85 126 
-0.0102475 -0.00598384 -0.00655758 80 23 48 
-0.010956 -0.00595658 -0.00768983 0 0 0 
-0.0116647 -0.00592931 -0.0088222 36 57 88 
-0.0107746 -0.00618885 -0.0111874 52 71 121 
-0.0114851 -0.00616152 -0.0123227 42 60 135 
-0.0106006 -0.00642081 -0.0146968 36 46 145 
-0.0113129 -0.00639341 -0.015835 14 27 125 
-0.0112296 -0.00650928 -0.0175958 0 1 112 
-0.0119428 -0.00648185 -0.0187355 4 9 117 
-0.0110686 -0.00674076 -0.0211259 8 9 120 
-0.0117837 -0.00671325 -0.0222687 4 10 116 
-0.010915 -0.00697194 -0.0246681 4 10 116 
-0.00925899 -0.00737356 -0.0277033 4 10 116 
-0.00997877 -0.00734587 -0.0288534 4 5 101 
-0.0106986 -0.00731818 -0.0300035 37 13 105 
-0.00984192 -0.00757643 -0.0324223 5 26 107 
-0.0105636 -0.00754867 -0.0335754 20 103 153 
-0.0112852 -0.00752091 -0.0347284 2 111 159 
-0.010436 -0.00777886 -0.0371591 25 152 179 
-0.0111595 -0.00775104 -0.0383152 16 159 179 
-0.0103159 -0.00800877 -0.0407547 22 173 197 
-0.0102586 -0.00812361 -0.0425569 17 162 190 
-0.0109849 -0.00809569 -0.0437175 30 138 169 
-0.0101497 -0.00835309 -0.0461704 0 127 155 
-0.0108778 -0.00832508 -0.0473338 0 132 165 
-0.0100482 -0.00858226 -0.0497957 0 144 180 
-0.0107782 -0.00855419 -0.0509622 1 167 194 
-0.0115082 -0.00852612 -0.0521287 13 161 181 
-0.0122382 -0.00849803 -0.0532951 0 148 177 
-0.0114178 -0.00875486 -0.0557718 0 137 174 
-0.0121497 -0.00872671 -0.0569413 0 133 170 
-0.0128816 -0.00869856 -0.0581107 65 137 173 
-0.0136135 -0.0086704 -0.0592802 108 153 180 
-0.0128024 -0.00892691 -0.0617717 111 148 165 
-0.0135362 -0.00889868 -0.0629441 101 144 165 
0.0315852 -0.00949942 0.0507444 168 181 195 
0.0308719 -0.00947199 0.0496048 142 154 166 
0.0301587 -0.00944454 0.048465 143 153 163 
0.0294454 -0.00941711 0.0473253 154 166 173 
0.0304276 -0.00968368 0.045107 159 167 175 
0.0297124 -0.00965617 0.0439643 156 165 173 
0.0289973 -0.00962866 0.0428216 155 159 165 
0.0282822 -0.00960115 0.0416789 158 162 171 
0.027567 -0.00957365 0.0405362 162 164 173 
0.0285382 -0.00983979 0.0383002 180 192 204 
0.0278212 -0.00981221 0.0371544 173 174 192 
0.0271041 -0.00978462 0.0360087 71 97 113 
0.0263872 -0.00975704 0.0348631 29 65 87 
0.0239914 -0.00943611 0.0348226 59 55 99 
0.0232763 -0.0094086 0.03368 67 49 123 
0.0225611 -0.00938109 0.0325372 100 105 136 
0.0201729 -0.00906043 0.0325087 155 110 122 
0.0194596 -0.009033 0.031369 174 101 90 
0.0179116 -0.00885905 0.0307893 170 106 101 
0.0155317 -0.00853873 0.0307741 201 149 133 
0.0148212 -0.0085114 0.0296388 212 153 133 
0.0124468 -0.00819127 0.0296326 247 217 220 
0.0109072 -0.00801767 0.0290662 249 215 214 
0.0101995 -0.00799044 0.0279354 169 100 102 
0.00783354 -0.00767063 0.0279425 128 86 56 
0.0071277 -0.00764348 0.0268147 159 166 178 
0.0047673 -0.00732392 0.0268307 133 173 217 
0.00406337 -0.00729685 0.0257058 44 157 186 
0.00170845 -0.00697748 0.0257307 153 167 194 
0.00100636 -0.00695046 0.024609 208 187 195 
0.000304222 -0.00692346 0.023487 209 198 190 
-0.000397861 -0.00689646 0.0223651 176 184 178 
-0.0011 -0.00686944 0.0212432 128 168 163 
-0.00262284 -0.00669646 0.0207037 18 152 153 
-0.00332403 -0.00666949 0.0195832 60 127 125 
-0.00402522 -0.00664252 0.0184628 18 71 76 
-0.00472641 -0.00661555 0.0173423 23 24 42 
-0.0054276 -0.00658858 0.0162219 67 6 18 
-0.00612879 -0.00656161 0.0151016 26 2 0 
-0.00682992 -0.00653464 0.0139811 41 0 0 
-0.00671685 -0.00665339 0.0122679 0 0 0 
-0.00741899 -0.00662638 0.0111461 78 79 69 
-0.00812107 -0.00659937 0.0100242 76 76 76 
-0.00720018 -0.00686358 0.00770783 43 57 55 
-0.00790417 -0.0068365 0.00658298 68 55 61 
-0.00698894 -0.00710049 0.00425768 125 93 93 
-0.00769472 -0.00707334 0.00312984 105 80 72 
-0.00678509 -0.00733712 0.000795722 31 7 10 
-0.00749278 -0.00730991 -0.000335097 33 26 45 
-0.00820047 -0.00728268 -0.00146592 42 56 69 
-0.00890815 -0.00725546 -0.00259674 38 67 67 
-0.00961584 -0.00722823 -0.00372756 38 94 110 
-0.00952041 -0.00734628 -0.00546896 99 111 130 
-0.0102291 -0.00731903 -0.00660121 65 21 42 
-0.0109377 -0.00729177 -0.00773358 0 0 0 
-0.0116463 -0.0072645 -0.00886583 38 65 92 
-0.0107561 -0.00752755 -0.0112312 40 61 114 
-0.0114666 -0.00750022 -0.0123664 4 59 123 
-0.010582 -0.00776302 -0.0147407 38 68 129 
-0.0112944 -0.00773562 -0.0158789 0 61 128 
-0.011211 -0.00785323 -0.0176398 0 7 107 
-0.0119243 -0.0078258 -0.0187794 19 9 111 
-0.0126376 -0.00779837 -0.0199192 15 10 118 
-0.0117651 -0.0080607 -0.0223128 4 10 116 
-0.0124803 -0.00803319 -0.0234555 2 13 109 
-0.0100313 -0.00858495 -0.0271176 0 2 102 
-0.00996006 -0.00870211 -0.0288978 0 0 93 
-0.0106798 -0.00867443 -0.0300479 0 67 121 
-0.00982314 -0.00893616 -0.0324668 0 85 126 
-0.0105448 -0.0089084 -0.0336199 65 121 142 
-0.00969374 -0.00916993 -0.0360476 60 135 157 
-0.0104172 -0.00914209 -0.0372037 76 152 163 
-0.0111407 -0.00911427 -0.0383598 101 156 161 
-0.0102971 -0.00937551 -0.0407994 95 158 168 
-0.0102397 -0.00949209 -0.0426017 98 158 169 
-0.010966 -0.00946417 -0.0437622 61 144 160 
-0.0101308 -0.00972507 -0.0462152 19 129 148 
-0.0108589 -0.00969706 -0.0473788 0 128 151 
-0.011587 -0.00966906 -0.0485423 0 149 170 
-0.0107592 -0.00992969 -0.0510072 0 164 185 
-0.0114892 -0.00990161 -0.0521737 15 161 181 
-0.0122193 -0.00987352 -0.0533401 0 142 173 
-0.0113989 -0.0101339 -0.0558169 0 138 173 
-0.0121307 -0.0101057 -0.0569864 0 136 168 
-0.0128626 -0.0100776 -0.0581558 76 139 170 
-0.0135944 -0.0100494 -0.0593253 124 156 176 
-0.0127833 -0.0103094 -0.0618169 124 146 161 
-0.0135171 -0.0102812 -0.0629894 113 142 158 
0.0316038 -0.0108434 0.0507005 168 181 195 
0.0308905 -0.0108159 0.0495608 141 153 164 
0.0301772 -0.0107885 0.048421 142 152 162 
0.0294639 -0.0107611 0.0472813 157 168 175 
0.0304461 -0.0110311 0.0450629 159 167 175 
0.029731 -0.0110036 0.0439203 156 165 173 
0.0290159 -0.0109761 0.0427775 156 161 167 
0.0283008 -0.0109486 0.0416348 159 163 172 
0.0292737 -0.0112183 0.0394017 162 164 173 
0.0285568 -0.0111908 0.0382559 185 197 209 
0.0278398 -0.0111632 0.0371102 180 181 199 
0.0271228 -0.0111356 0.0359646 72 98 114 
0.0264058 -0.011108 0.0348189 19 55 76 
0.0240099 -0.0107836 0.0347786 55 52 96 
0.0232948 -0.0107561 0.0336359 79 61 135 
0.0225797 -0.0107286 0.0324932 72 78 109 
0.0201914 -0.0104044 0.0324647 118 73 85 
0.0194781 -0.010377 0.031325 167 94 83 
0.0179301 -0.0102013 0.0307454 169 105 99 
0.0155501 -0.00987744 0.0307304 213 162 145 
0.0148396 -0.00985011 0.029595 248 189 169 
0.0124652 -0.00952648 0.0295888 251 220 223 
0.0117566 -0.00949923 0.0284566 236 203 201 
0.0102179 -0.00932389 0.0278918 92 23 25 
0.0078519 -0.00900056 0.027899 52 10 0 
0.00714606 -0.00897341 0.0267712 141 148 161 
0.0047856 -0.00865035 0.0267874 129 168 212 
0.00242883 -0.0083274 0.0268095 41 154 184 
0.00172669 -0.0083004 0.0256876 146 160 187 
0.0010246 -0.00827339 0.0245656 204 183 191 
0.000322461 -0.00824638 0.0234437 193 181 174 
-0.000379622 -0.00821938 0.0223218 174 183 177 
-0.00190347 -0.00804462 0.0217808 123 163 159 
-0.00260466 -0.00801764 0.0206604 10 144 145 
-0.00330585 -0.00799067 0.01954 61 128 126 
-0.00400704 -0.0079637 0.0184196 17 70 75 
-0.00470817 -0.00793673 0.0172992 24 25 43 
-0.00540936 -0.00790976 0.0161787 74 13 25 
-0.00611055 -0.00788279 0.0150583 52 29 24 
-0.00681174 -0.00785582 0.0139378 143 98 85 
-0.00751293 -0.00782885 0.0128175 108 100 90 
-0.00740075 -0.0079493 0.0111028 96 97 88 
-0.00810283 -0.0079223 0.00998092 88 88 88 
-0.00880498 -0.00789528 0.00885904 64 78 76 
-0.00626475 -0.00845756 0.00534213 86 72 79 
-0.00697058 -0.00843041 0.00421417 126 94 95 
-0.00767642 -0.00840326 0.00308645 110 86 78 
-0.00676668 -0.00867056 0.000752091 25 1 5 
-0.00747436 -0.00864335 -0.000378728 16 10 29 
-0.00818205 -0.00861613 -0.00150955 0 6 19 
-0.00888979 -0.0085889 -0.00264037 0 23 23 
-0.00959748 -0.00856168 -0.00377119 36 92 108 
-0.00950199 -0.0086815 -0.0055126 84 96 114 
-0.0102106 -0.00865424 -0.00664485 44 1 21 
-0.0109193 -0.00862699 -0.00777721 0 0 0 
-0.0116279 -0.00859972 -0.00890958 47 74 102 
-0.0107377 -0.00886626 -0.0112749 51 71 125 
-0.0114481 -0.00883893 -0.0124103 0 43 107 
-0.0105636 -0.00910524 -0.0147846 35 64 125 
-0.0112759 -0.00907784 -0.0159229 11 77 144 
-0.0111925 -0.00919718 -0.0176836 12 28 128 
-0.0119058 -0.00916975 -0.0188234 22 13 115 
-0.012619 -0.00914232 -0.0199631 13 8 116 
-0.0117466 -0.00940817 -0.0223567 7 12 118 
-0.0124617 -0.00938066 -0.0234995 0 6 102 
-0.0100126 -0.00993944 -0.027162 0 0 91 
-0.00994134 -0.0100583 -0.0289421 0 18 113 
-0.0106611 -0.0100306 -0.0300922 40 124 178 
-0.00980443 -0.0102959 -0.0325112 50 136 177 
-0.0105261 -0.0102681 -0.0336643 79 135 156 
-0.00967497 -0.0105332 -0.0360922 57 131 153 
-0.0103984 -0.0105053 -0.0372483 73 149 159 
-0.0111219 -0.0104775 -0.0384043 82 138 142 
-0.0102782 -0.0107422 -0.0408441 15 77 88 
-0.0102209 -0.0108606 -0.0426465 47 107 118 
-0.0109472 -0.0108327 -0.0438069 46 129 145 
-0.0101118 -0.0110971 -0.0462601 0 107 126 
-0.01084 -0.0110691 -0.0474236 0 98 120 
-0.0115681 -0.0110411 -0.0485872 0 114 136 
-0.0122963 -0.0110131 -0.0497507 0 164 185 
-0.0114703 -0.0112771 -0.0522186 19 164 184 
-0.0122003 -0.011249 -0.0533851 0 139 170 
-0.0129303 -0.011221 -0.0545516 0 137 172 
-0.0121117 -0.0114847 -0.0570315 0 136 168 
-0.0128435 -0.0114566 -0.0582009 76 139 170 
-0.0135754 -0.0114284 -0.0593704 126 158 178 
-0.0127643 -0.0116919 -0.0618621 120 143 157 
-0.013498 -0.0116637 -0.0630345 112 141 156 
0.030909 -0.0121599 0.0495168 142 153 167 
0.0301957 -0.0121325 0.048377 133 148 157 
0.0294825 -0.012105 0.0472373 155 165 170 
0.0304647 -0.0123786 0.0450189 160 166 170 
0.0297496 -0.0123511 0.0438762 158 164 166 
0.0290344 -0.0123236 0.0427336 157 159 165 
0.0283193 -0.0122961 0.0415908 164 165 170 
0.0292924 -0.0125693 0.0393574 154 167 170 
0.0285754 -0.0125417 0.0382117 169 197 206 
0.0278584 -0.0125141 0.0370661 170 190 205 
0.0271414 -0.0124866 0.0359204 77 122 117 
0.0281051 -0.0127594 0.0336722 31 86 57 
0.0257074 -0.0124314 0.0336291 57 105 104 
0.0233134 -0.0121035 0.0335919 106 114 137 
0.0225983 -0.012076 0.0324491 112 31 36 
0.02021 -0.0117484 0.0324208 102 25 0 
0.0194967 -0.0117209 0.0312811 163 84 69 
0.0179486 -0.0115435 0.0307015 163 99 94 
0.0155686 -0.0112161 0.0306865 200 204 204 
0.0148581 -0.0111888 0.0295513 243 211 205 
0.0124837 -0.0108617 0.0295452 235 210 210 
0.011775 -0.0108344 0.0284129 230 184 187 
0.0102363 -0.0106573 0.0278482 133 39 0 
0.0078702 -0.0103305 0.0278555 70 0 0 
0.00550783 -0.0100039 0.0278689 150 134 148 
0.0048039 -0.00997679 0.026744 141 161 203 
0.00244707 -0.00965033 0.0267662 87 150 186 
0.00174493 -0.00962333 0.0256443 100 140 170 
0.00104284 -0.00959631 0.0245224 157 138 159 
0.0003407 -0.00956931 0.0234004 146 130 128 
-0.000361383 -0.00954231 0.0222785 183 153 156 
-0.00188524 -0.0093658 0.0217377 125 140 137 
-0.00258642 -0.00933883 0.0206172 60 127 125 
-0.00328761 -0.00931185 0.0194968 75 128 126 
-0.0039888 -0.00928488 0.0183764 18 75 87 
-0.00468999 -0.00925791 0.0172559 40 39 76 
-0.00539118 -0.00923094 0.0161356 70 11 30 
-0.00609237 -0.00920397 0.0150151 128 26 17 
-0.0067935 -0.009177 0.0138947 159 95 85 
-0.00749469 -0.00915003 0.0127743 190 125 131 
-0.00738251 -0.00927223 0.0110595 147 126 129 
-0.0080846 -0.00924522 0.00993764 147 125 131 
-0.00878674 -0.00921821 0.00881565 68 77 76 
-0.00948882 -0.00919121 0.00769389 103 73 74 
-0.00695223 -0.00976037 0.00417078 147 106 106 
-0.00765806 -0.00973322 0.00304282 131 104 97 
-0.0083639 -0.00970607 0.0019151 29 22 23 
-0.007456 -0.00997678 -0.000422239 25 27 61 
-0.00816369 -0.00994956 -0.00155306 52 11 17 
-0.00887138 -0.00992233 -0.00268388 0 0 0 
-0.00957906 -0.00989511 -0.0038147 41 59 60 
-0.0102867 -0.00986788 -0.00494552 79 76 78 
-0.0101922 -0.00998943 -0.00668859 34 10 23 
-0.0109009 -0.00996218 -0.00782084 0 0 0 
-0.0116095 -0.00993491 -0.00895321 0 84 106 
-0.0107192 -0.0102049 -0.0113188 33 90 122 
-0.0114297 -0.0101776 -0.012454 10 43 99 
-0.0105451 -0.0104474 -0.0148284 52 42 92 
-0.0112574 -0.01042 -0.0159668 78 45 116 
-0.011174 -0.0105411 -0.0177276 63 33 122 
-0.0118873 -0.0105137 -0.0188674 21 12 112 
-0.0126005 -0.0104863 -0.020007 20 11 111 
-0.011728 -0.0107556 -0.0224009 12 9 107 
-0.0124431 -0.0107281 -0.0235435 0 0 96 
-0.00999397 -0.0112939 -0.0272063 0 13 96 
-0.00992268 -0.0114145 -0.0289865 0 61 112 
-0.00906408 -0.0116834 -0.0314026 71 136 166 
-0.00820917 -0.0119521 -0.0338246 88 145 165 
-0.00893265 -0.0119242 -0.0349807 68 125 138 
-0.00965613 -0.0118964 -0.0361367 46 124 128 
-0.0103796 -0.0118686 -0.0372928 79 143 149 
-0.00953406 -0.0121369 -0.0397297 83 140 146 
-0.0102594 -0.012109 -0.0408887 35 84 87 
-0.010202 -0.0122291 -0.0426912 17 103 126 
-0.0109283 -0.0122012 -0.0438517 0 110 131 
-0.0100929 -0.0124691 -0.0463049 0 94 134 
-0.010821 -0.0124411 -0.0474685 4 96 122 
-0.0115492 -0.0124131 -0.048632 0 95 120 
-0.0122774 -0.012385 -0.0497955 0 152 173 
-0.0114513 -0.0126526 -0.0522636 47 158 186 
-0.0121813 -0.0126245 -0.0534301 0 141 174 
-0.0129113 -0.0125965 -0.0545965 0 137 173 
-0.0120926 -0.0128637 -0.0570766 0 134 169 
-0.0128245 -0.0128356 -0.058246 72 137 167 
-0.0135564 -0.0128074 -0.0594155 121 150 177 
-0.0127452 -0.0130744 -0.0619073 122 139 156 
-0.0134789 -0.0130462 -0.0630797 124 143 154 
0.0333438 -0.0138361 0.0495456 159 173 191 
0.0309275 -0.0135039 0.0494729 143 154 168 
0.0302143 -0.0134764 0.0483332 136 152 160 
0.029501 -0.013449 0.0471934 154 164 169 
0.0287877 -0.0134216 0.0460536 159 165 168 
0.0297682 -0.0136986 0.0438322 157 163 165 
0.029053 -0.013671 0.0426894 157 159 165 
0.0283379 -0.0136435 0.0415467 166 166 171 
0.029311 -0.0139203 0.0393132 156 168 171 
0.028594 -0.0138927 0.0381676 169 197 206 
0.027877 -0.0138651 0.0370219 172 192 207 
0.02716 -0.0138375 0.0358763 84 129 124 
0.0281238 -0.0141139 0.033628 41 97 67 
0.027405 -0.0140862 0.0324793 69 118 117 
0.025009 -0.0137548 0.0324392 99 107 130 
0.0242921 -0.0137272 0.0312935 75 0 0 
0.0219017 -0.013396 0.0312623 86 10 0 
0.0211866 -0.0133685 0.0301197 151 72 58 
0.0188019 -0.0130375 0.0300974 161 97 91 
0.0180886 -0.01301 0.0289576 215 220 219 
0.0165424 -0.0128309 0.0283811 254 222 216 
0.0141661 -0.0125002 0.0283722 215 191 190 
0.0117934 -0.0121696 0.0283693 222 175 178 
0.0102547 -0.0119908 0.0278046 162 68 22 
0.00788856 -0.0116605 0.0278121 87 2 0 
0.00552613 -0.0113303 0.0278255 129 113 127 
0.00482213 -0.0113032 0.0267006 132 151 194 
0.00246531 -0.0109733 0.0267229 100 163 198 
0.00176316 -0.0109463 0.025601 124 164 194 
0.00106108 -0.0109193 0.0244792 171 152 173 
0.000358939 -0.0108923 0.0233573 175 160 157 
-0.000343144 -0.0108653 0.0222353 196 166 168 
-0.00104529 -0.0108382 0.0211134 117 132 129 
-0.00174737 -0.0108112 0.0199915 36 102 101 
-0.00244951 -0.0107842 0.0188696 63 116 114 
-0.00397056 -0.0106061 0.0183332 21 79 90 
-0.00467175 -0.0105791 0.0172127 41 40 77 
-0.00537294 -0.0105521 0.0160923 53 0 13 
-0.00525796 -0.0106762 0.014382 92 0 0 
-0.00677532 -0.0104982 0.0138515 79 14 4 
-0.00747651 -0.0104712 0.0127311 83 17 24 
-0.00736427 -0.0105952 0.0110162 91 70 73 
-0.00806636 -0.0105682 0.00989437 91 69 75 
-0.0087685 -0.0105412 0.00877249 52 62 61 
-0.00947058 -0.0105142 0.00765049 89 59 60 
-0.00855327 -0.0107887 0.00532794 138 97 96 
-0.00763977 -0.0110632 0.00299942 124 97 90 
-0.0083456 -0.011036 0.00187159 22 15 16 
-0.00743765 -0.0113102 -0.00046587 30 32 66 
-0.00814533 -0.011283 -0.00159669 82 41 48 
-0.00885302 -0.0112558 -0.00272751 16 19 12 
-0.0095607 -0.0112286 -0.00385833 0 14 16 
-0.0102684 -0.0112013 -0.00498915 57 54 56 
-0.0101739 -0.0113246 -0.00673223 46 21 34 
-0.0108824 -0.0112974 -0.00786459 0 15 12 
-0.0115911 -0.0112701 -0.00899684 0 88 111 
-0.0107008 -0.0115437 -0.0113624 29 87 118 
-0.0098142 -0.011817 -0.0137341 4 37 93 
-0.0105265 -0.0117896 -0.0148724 39 30 79 
-0.0104422 -0.0119125 -0.0166317 62 28 100 
-0.0111554 -0.0118851 -0.0177716 43 13 102 
-0.0118687 -0.0118577 -0.0189112 17 9 108 
-0.012582 -0.0118302 -0.020051 19 10 109 
-0.0117094 -0.0121031 -0.0224448 1 0 95 
-0.0124245 -0.0120756 -0.0235876 0 0 97 
-0.00997525 -0.0126484 -0.0272505 59 81 164 
-0.00990397 -0.0127708 -0.0290308 35 114 165 
-0.0090453 -0.0130431 -0.0314471 79 144 174 
-0.00819033 -0.0133153 -0.0338691 87 144 164 
-0.00891387 -0.0132875 -0.0350252 60 117 130 
-0.00963736 -0.0132596 -0.0361813 42 121 124 
-0.0103608 -0.0132318 -0.0373374 84 148 153 
-0.00951523 -0.0135036 -0.0397744 84 141 147 
-0.0102406 -0.0134757 -0.0409335 37 86 89 
-0.0101832 -0.0135976 -0.0427359 0 79 101 
-0.0109094 -0.0135696 -0.0438966 0 100 120 
-0.010074 -0.0138411 -0.0463499 0 93 133 
-0.0108021 -0.013813 -0.0475134 10 102 128 
-0.0115303 -0.013785 -0.0486768 0 98 123 
-0.0107023 -0.0140562 -0.0511421 0 134 155 
-0.0114323 -0.0140281 -0.0523086 36 148 175 
-0.0121623 -0.014 -0.0534751 0 141 174 
-0.0113418 -0.0142709 -0.0559522 0 138 174 
-0.0120737 -0.0142427 -0.0571216 0 133 168 
-0.0128055 -0.0142146 -0.0582911 74 139 170 
-0.0119925 -0.0144852 -0.0607801 122 151 178 
-0.0127262 -0.0144569 -0.0619525 125 142 160 
-0.0134599 -0.0144287 -0.063125 129 148 159 
0.0333624 -0.0151836 0.0495015 160 171 192 
0.0309461 -0.0148478 0.0494289 137 153 166 
0.0302328 -0.0148204 0.0482892 136 153 162 
0.0295195 -0.014793 0.0471494 153 165 170 
0.0288063 -0.0147655 0.0460097 159 165 168 
0.0297867 -0.015046 0.0437881 161 162 166 
0.0290716 -0.0150185 0.0426453 155 159 165 
0.0283565 -0.014991 0.0415026 153 165 170 
0.0293296 -0.0152712 0.0392691 156 167 170 
0.0286126 -0.0152437 0.0381235 189 195 203 
0.0295802 -0.0155237 0.0358809 166 194 206 
0.0288613 -0.015496 0.0347323 57 131 135 
0.0281425 -0.0154684 0.0335836 26 97 88 
0.0274236 -0.0154407 0.0324351 97 114 118 
0.0267047 -0.0154131 0.0312864 124 99 119 
0.0259859 -0.0153854 0.0301377 91 0 0 
0.0235937 -0.0150506 0.0301037 93 0 0 
0.0212051 -0.0147159 0.0300756 146 73 73 
0.0188205 -0.0143814 0.0300534 160 98 101 
0.0181072 -0.014354 0.0289136 242 221 229 
0.0165609 -0.0141731 0.0283372 255 227 234 
0.0141845 -0.0138389 0.0283284 251 156 155 
0.0118118 -0.0135048 0.0283256 208 143 108 
0.010273 -0.0133242 0.027761 155 79 48 
0.00790685 -0.0129904 0.0277685 105 30 0 
0.00554442 -0.0126567 0.0277821 144 84 92 
0.00484043 -0.0126297 0.0266572 129 146 163 
0.00248355 -0.0122962 0.0266796 109 171 195 
0.0017814 -0.0122692 0.0255578 142 169 201 
0.00107932 -0.0122422 0.0244359 159 159 180 
0.000377178 -0.0122152 0.0233139 159 164 170 
-0.000324905 -0.0121882 0.0221921 161 173 180 
-0.00102705 -0.0121612 0.0210701 88 142 151 
-0.00172913 -0.0121342 0.0199482 3 120 124 
-0.00243127 -0.0121072 0.0188264 8 116 119 
-0.00313336 -0.0120802 0.0177044 9 82 96 
-0.0038355 -0.0120531 0.0165825 35 61 93 
-0.00453758 -0.0120261 0.0154606 43 0 6 
-0.00523973 -0.0119991 0.0143387 0 0 0 
-0.00594181 -0.0119721 0.0132169 48 0 0 
-0.00664395 -0.0119451 0.0120949 0 0 0 
-0.00734603 -0.0119181 0.010973 56 0 0 
-0.00804812 -0.0118911 0.0098511 0 17 0 
-0.00875026 -0.0118641 0.00872922 74 10 0 
-0.00783104 -0.0121423 0.00640953 0 5 0 
-0.00853503 -0.0121152 0.00528455 61 71 63 
-0.00762141 -0.0123931 0.00295591 81 80 50 
-0.00832725 -0.012366 0.00182807 62 26 31 
-0.00903308 -0.0123388 0.000700235 47 36 56 
-0.00812691 -0.0126165 -0.00164032 43 41 46 
-0.0088346 -0.0125892 -0.00277114 31 41 51 
-0.00954229 -0.012562 -0.00390196 27 70 77 
-0.0094468 -0.0126871 -0.00564361 78 73 80 
-0.0101554 -0.0126598 -0.00677586 58 17 30 
-0.010864 -0.0126326 -0.00790823 0 6 15 
-0.0115727 -0.0126053 -0.00904047 14 89 109 
-0.0106823 -0.0128824 -0.0114063 31 91 118 
-0.00979573 -0.0131593 -0.013778 9 73 115 
-0.0105081 -0.0131319 -0.0149163 16 60 119 
-0.0104237 -0.0132565 -0.0166757 0 56 123 
-0.0111369 -0.0132291 -0.0178155 0 8 118 
-0.0118502 -0.0132016 -0.0189552 13 5 109 
-0.0125635 -0.0131742 -0.020095 2 16 107 
-0.0101048 -0.0137544 -0.0237433 0 0 94 
-0.00923777 -0.0140305 -0.0261462 0 6 89 
-0.00916547 -0.0141547 -0.027925 0 130 160 
-0.00988525 -0.014127 -0.0290751 56 137 153 
-0.00902659 -0.0144028 -0.0314914 54 150 164 
-0.00817156 -0.0146785 -0.0339137 80 151 163 
-0.00889504 -0.0146507 -0.0350698 64 126 137 
-0.00961858 -0.0146229 -0.0362259 64 123 132 
-0.0103421 -0.014595 -0.037382 79 133 149 
-0.00949639 -0.0148704 -0.0398191 75 129 150 
-0.0102217 -0.0148425 -0.0409781 0 77 105 
-0.0101643 -0.0149661 -0.0427808 0 71 113 
-0.0108905 -0.0149381 -0.0439413 24 93 125 
-0.0100551 -0.0152131 -0.0463947 0 91 122 
-0.0107833 -0.0151851 -0.0475582 19 105 132 
-0.0115114 -0.0151571 -0.0487217 0 107 130 
-0.0122395 -0.015129 -0.0498852 0 128 156 
-0.0114134 -0.0154036 -0.0523536 14 141 170 
-0.0121434 -0.0153755 -0.0535201 0 141 173 
-0.0113228 -0.0156499 -0.0559973 0 140 175 
-0.0120547 -0.0156217 -0.0571668 0 135 172 
-0.0127865 -0.0155936 -0.0583362 76 139 174 
-0.0119734 -0.0158677 -0.0608253 118 147 176 
-0.0127071 -0.0158395 -0.0619977 113 137 156 
0.0333809 -0.016531 0.0494576 160 171 192 
0.0326658 -0.0165035 0.0483148 127 143 157 
0.0319507 -0.016476 0.0471722 129 146 155 
0.0312356 -0.0164485 0.0460294 153 165 170 
0.0305204 -0.016421 0.0448867 159 165 168 
0.0298053 -0.0163935 0.043744 161 162 166 
0.0290902 -0.016366 0.0426012 156 161 167 
0.028375 -0.0163385 0.0414586 154 166 171 
0.0293483 -0.0166222 0.039225 159 169 172 
0.0286313 -0.0165946 0.0380793 189 195 203 
0.0295988 -0.0168781 0.0358367 158 186 197 
0.02888 -0.0168505 0.034688 53 127 131 
0.0281611 -0.0168228 0.0335394 41 112 103 
0.0274423 -0.0167952 0.0323907 105 122 126 
0.0267234 -0.0167675 0.031242 128 103 123 
0.0260046 -0.0167399 0.0300934 90 0 0 
0.0236123 -0.0164016 0.0300595 92 0 0 
0.0212237 -0.0160634 0.0300316 155 82 83 
0.018839 -0.0157254 0.0300095 189 127 130 
0.0181257 -0.0156979 0.0288697 252 232 240 
0.0165794 -0.0155153 0.0282934 254 220 227 
0.014203 -0.0151776 0.0282847 232 137 137 
0.0118302 -0.01484 0.0282819 188 123 88 
0.0102914 -0.0146577 0.0277175 166 90 59 
0.00792521 -0.0143204 0.0277251 136 62 26 
0.00721937 -0.0142932 0.0265973 137 77 85 
0.00485873 -0.0139561 0.0266138 131 148 166 
0.00250179 -0.0136191 0.0266365 125 187 211 
0.00179964 -0.0135921 0.0255145 158 186 218 
0.00109756 -0.0135651 0.0243926 164 164 184 
0.000395417 -0.0135381 0.0232707 160 165 171 
-0.000306666 -0.0135111 0.0221487 178 189 196 
-0.00100881 -0.0134841 0.0210268 101 155 164 
-0.00171089 -0.0134571 0.019905 37 154 158 
-0.00241303 -0.0134301 0.0187831 42 150 153 
-0.00311512 -0.0134031 0.0176612 16 89 103 
-0.00381726 -0.0133761 0.0165392 39 64 97 
-0.00451934 -0.0133491 0.0154173 43 0 6 
-0.00522149 -0.0133221 0.0142955 3 9 4 
-0.00592357 -0.0132951 0.0131736 172 118 104 
-0.00662571 -0.0132681 0.0120517 116 117 119 
-0.0073278 -0.013241 0.0109297 160 104 90 
-0.00802994 -0.013214 0.00980783 94 117 81 
-0.00873202 -0.013187 0.00868595 177 113 87 
-0.00781274 -0.0134687 0.00636613 94 114 102 
-0.00851673 -0.0134416 0.00524127 70 79 71 
-0.00760311 -0.0137231 0.0029124 81 80 50 
-0.00830895 -0.0136959 0.00178456 49 13 19 
-0.00901473 -0.0136688 0.000656724 35 24 44 
-0.00810856 -0.0139499 -0.00168383 36 34 39 
-0.00881624 -0.0139227 -0.00281465 38 48 58 
-0.00952393 -0.0138955 -0.00394547 55 98 105 
-0.00942838 -0.0140223 -0.00568724 85 80 87 
-0.010137 -0.013995 -0.00681961 44 3 16 
-0.0108457 -0.0139678 -0.00795186 0 14 24 
-0.00995338 -0.0142484 -0.0103148 19 95 114 
-0.0106639 -0.0142211 -0.0114501 41 100 127 
-0.00977719 -0.0145015 -0.013822 51 114 157 
-0.00969183 -0.0146279 -0.0155799 54 98 157 
-0.0104051 -0.0146005 -0.0167197 14 75 143 
-0.0111184 -0.014573 -0.0178595 11 22 132 
-0.0118316 -0.0145456 -0.0189992 19 11 115 
-0.0125449 -0.0145182 -0.0201389 0 12 103 
-0.0100862 -0.0151053 -0.0237874 0 0 98 
-0.00921911 -0.015385 -0.0261905 12 36 119 
-0.00914681 -0.0155109 -0.0279694 20 155 186 
-0.00828618 -0.0157903 -0.0303828 71 152 169 
-0.00900781 -0.0157626 -0.031536 61 157 171 
-0.00815278 -0.0160417 -0.0339583 85 156 167 
-0.00887626 -0.0160139 -0.0351144 71 133 144 
-0.00959975 -0.0159861 -0.0362705 50 109 118 
-0.00875217 -0.016265 -0.0387048 54 107 124 
-0.0094775 -0.0162371 -0.0398637 47 101 122 
-0.0102029 -0.0162092 -0.0410228 0 74 103 
-0.0101454 -0.0163346 -0.0428255 0 78 120 
-0.0108717 -0.0163066 -0.043986 39 108 140 
-0.0100362 -0.0165851 -0.0464395 25 119 150 
-0.0107644 -0.016557 -0.047603 56 143 170 
-0.0114925 -0.016529 -0.0487665 17 138 162 
-0.0122206 -0.016501 -0.0499301 0 127 155 
-0.0113944 -0.0167791 -0.0523986 12 138 168 
-0.0121244 -0.0167511 -0.053565 0 144 176 
-0.0113038 -0.0170289 -0.0560424 0 143 179 
-0.0120357 -0.0170008 -0.0572118 0 136 173 
-0.0112206 -0.0172784 -0.0596981 73 136 172 
-0.0119543 -0.0172502 -0.0608705 117 146 175 
-0.0119164 -0.0173748 -0.0627044 119 142 161 
0.0333995 -0.0178785 0.0494134 155 170 188 
0.0326844 -0.017851 0.0482708 119 141 156 
0.0319692 -0.0178235 0.0471281 124 141 150 
0.0312541 -0.017796 0.0459853 155 165 170 
0.030539 -0.0177685 0.0448426 160 165 171 
0.0298239 -0.017741 0.0437 159 161 168 
0.0291088 -0.0177135 0.0425572 150 161 168 
0.0283936 -0.017686 0.0414145 156 168 172 
0.0276785 -0.0176584 0.0402719 157 170 172 
0.0286499 -0.0179456 0.038035 175 193 201 
0.0279329 -0.017918 0.0368894 138 181 195 
0.0288987 -0.018205 0.0346438 65 146 167 
0.0281798 -0.0181773 0.0334951 71 142 181 
0.0274609 -0.0181497 0.0323464 78 142 166 
0.0267421 -0.018122 0.0311978 120 106 128 
0.024348 -0.0177801 0.031161 86 0 3 
0.0219575 -0.0174384 0.0311302 83 0 0 
0.0212423 -0.0174109 0.0299875 150 86 94 
0.0188575 -0.0170693 0.0299655 199 145 156 
0.0181442 -0.0170419 0.0288258 255 214 221 
0.0165979 -0.0168575 0.0282494 252 210 208 
0.0142214 -0.0165163 0.0282409 196 127 116 
0.0118486 -0.0161752 0.0282383 178 102 78 
0.0103098 -0.0159911 0.0276738 180 95 77 
0.00794351 -0.0156503 0.0276816 129 69 45 
0.00723767 -0.0156231 0.0265538 131 83 91 
0.00487703 -0.0152826 0.0265704 134 149 171 
0.00417304 -0.0152555 0.0254456 124 189 213 
0.00181788 -0.0149151 0.0254712 173 192 214 
0.00111574 -0.0148881 0.0243493 181 163 184 
0.000413656 -0.0148611 0.0232275 159 163 172 
-0.000288427 -0.0148341 0.0221056 139 188 198 
-0.00099057 -0.0148071 0.0209836 108 157 172 
-0.00169265 -0.0147801 0.0198617 63 160 169 
-0.0023948 -0.014753 0.0187398 78 150 147 
-0.00309688 -0.014726 0.0176179 0 102 117 
-0.00379902 -0.014699 0.0164961 38 73 92 
-0.0045011 -0.014672 0.0153741 70 0 0 
-0.00520325 -0.014645 0.0142522 87 47 49 
-0.00590533 -0.014618 0.0131303 159 149 146 
-0.00660747 -0.014591 0.0120084 172 148 145 
-0.00568253 -0.0148764 0.00969732 143 139 135 
-0.0080117 -0.014537 0.00976455 158 125 115 
-0.00871378 -0.01451 0.00864267 146 142 148 
-0.00779444 -0.0147951 0.00632274 167 144 152 
-0.00849843 -0.0147681 0.00519788 109 126 136 
-0.00758475 -0.015053 0.00286901 100 90 94 
-0.00829059 -0.0150258 0.00174105 33 23 32 
-0.00899643 -0.0149987 0.000613213 36 33 61 
-0.0080902 -0.0152834 -0.00172746 30 43 45 
-0.00879788 -0.0152561 -0.00285828 37 54 44 
-0.00870138 -0.0153847 -0.00459862 65 77 82 
-0.00941002 -0.0153575 -0.00573087 58 72 79 
-0.0101186 -0.0153302 -0.00686324 5 19 31 
-0.00922447 -0.0156144 -0.00922334 0 36 45 
-0.00993496 -0.0155871 -0.0103586 50 94 105 
-0.00904638 -0.0158711 -0.0127275 67 95 100 
-0.00975871 -0.0158437 -0.0138658 41 97 122 
-0.0096733 -0.0159719 -0.0156239 70 95 130 
-0.0103866 -0.0159444 -0.0167636 0 73 123 
-0.0110999 -0.015917 -0.0179034 12 38 107 
-0.0102234 -0.0162005 -0.0202917 15 15 101 
-0.0109386 -0.016173 -0.0214344 0 15 98 
-0.0100676 -0.0164563 -0.0238316 0 34 105 
-0.00920039 -0.0167395 -0.0262347 0 78 126 
-0.00912809 -0.0168671 -0.0280137 85 145 169 
-0.00984788 -0.0168395 -0.0291638 95 151 161 
-0.0089891 -0.0171223 -0.0315803 89 146 158 
-0.00971073 -0.0170945 -0.0327336 92 144 158 
-0.00885749 -0.0173772 -0.035159 34 111 132 
-0.00958097 -0.0173493 -0.0363151 0 85 122 
-0.00873333 -0.0176317 -0.0387493 19 91 122 
-0.00945866 -0.0176038 -0.0399085 11 88 116 
-0.010184 -0.0175759 -0.0410675 1 84 116 
-0.0101265 -0.017703 -0.0428702 0 88 125 
-0.0108528 -0.0176751 -0.0440308 27 125 145 
-0.0100173 -0.0179571 -0.0464844 76 129 143 
-0.0107454 -0.017929 -0.047648 107 144 163 
-0.0114736 -0.017901 -0.0488114 67 135 161 
-0.0122017 -0.017873 -0.0499749 6 124 151 
-0.0113755 -0.0181546 -0.0524435 3 136 167 
-0.0121055 -0.0181265 -0.05361 0 143 175 
-0.0112848 -0.0184079 -0.0560875 18 142 177 
-0.0120167 -0.0183798 -0.0572569 32 137 170 
-0.0112016 -0.0186609 -0.0597433 60 135 168 
-0.0119353 -0.0186327 -0.0609157 93 140 169 
-0.0118973 -0.018759 -0.0627496 122 144 165 
0.0334181 -0.019226 0.0493695 156 171 189 
0.032703 -0.0191985 0.0482267 120 143 157 
0.0319878 -0.0191709 0.047084 124 141 150 
0.0312727 -0.0191434 0.0459412 155 165 170 
0.0305576 -0.0191159 0.0447986 162 166 172 
0.0298424 -0.0190884 0.0436559 159 161 168 
0.0291273 -0.0190609 0.0425133 151 162 169 
0.0284122 -0.0190334 0.0413705 160 172 177 
0.027697 -0.0190059 0.0402278 159 172 174 
0.0286685 -0.0192966 0.0379909 176 194 202 
0.0279515 -0.019269 0.0368452 145 188 202 
0.0289173 -0.0195595 0.0345994 99 181 202 
0.0281985 -0.0195318 0.0334507 120 191 230 
0.0274796 -0.0195042 0.0323021 83 148 172 
0.0267608 -0.0194765 0.0311536 76 61 84 
0.0243666 -0.0191311 0.0311168 79 0 0 
0.021976 -0.0187858 0.0310861 83 0 0 
0.0212609 -0.0187583 0.0299433 151 87 95 
0.018876 -0.0184133 0.0299217 189 135 146 
0.0181628 -0.0183858 0.0287818 254 211 218 
0.0166164 -0.0181997 0.0282055 247 204 202 
0.0142398 -0.017855 0.0281972 183 114 103 
0.011867 -0.0175104 0.0281945 176 100 76 
0.0111584 -0.0174832 0.0270623 191 106 88 
0.00962049 -0.0172973 0.0264994 142 82 58 
0.00725603 -0.0169531 0.0265102 140 92 100 
0.00489527 -0.016609 0.026527 127 142 164 
0.00419134 -0.0165819 0.0254022 119 184 208 
0.00348735 -0.0165548 0.0242773 159 179 200 
0.00113398 -0.016211 0.0243061 163 144 165 
0.000431895 -0.016184 0.0231842 157 161 169 
-0.000270188 -0.016157 0.0220623 139 188 198 
-0.000972331 -0.01613 0.0209404 126 176 191 
-0.00167441 -0.016103 0.0198184 74 171 181 
-0.00237656 -0.016076 0.0186965 81 152 150 
-0.00307864 -0.016049 0.0175747 0 110 125 
-0.00378078 -0.0160219 0.0164528 39 74 93 
-0.00448287 -0.0159949 0.0153309 60 0 0 
-0.00518501 -0.0159679 0.0142089 75 36 38 
-0.00588709 -0.0159409 0.013087 165 154 152 
-0.0049603 -0.0162299 0.0107788 177 153 150 
-0.00566429 -0.0162028 0.00965393 143 139 135 
-0.00799346 -0.0158599 0.0097214 172 139 129 
-0.00869554 -0.0158329 0.0085994 155 150 156 
-0.0077762 -0.0161216 0.00627935 169 146 155 
-0.00848013 -0.0160945 0.00515449 116 133 143 
-0.00756639 -0.0163829 0.00282538 105 94 98 
-0.00827223 -0.0163558 0.00169766 22 13 21 
-0.00897807 -0.0163286 0.000569701 30 28 55 
-0.00807178 -0.0166168 -0.00177109 31 44 46 
-0.00877947 -0.0165896 -0.00290191 46 63 53 
-0.00868297 -0.0167199 -0.00464225 57 69 73 
-0.00939161 -0.0166927 -0.00577462 52 66 73 
-0.00849551 -0.0169805 -0.00813174 13 27 39 
-0.009206 -0.0169531 -0.00926709 0 48 57 
-0.0083155 -0.0172407 -0.0116332 55 99 111 
-0.00822824 -0.0173707 -0.0133884 38 66 70 
-0.00894153 -0.0173433 -0.0145282 0 30 55 
-0.00965482 -0.0173158 -0.0156678 3 27 62 
-0.010368 -0.0172884 -0.0168076 0 33 83 
-0.0110813 -0.017261 -0.0179473 0 16 85 
-0.0102049 -0.017548 -0.0203358 0 0 82 
-0.01092 -0.0175205 -0.0214784 0 7 90 
-0.010049 -0.0178073 -0.0238758 23 77 148 
-0.00918174 -0.018094 -0.0262791 31 112 161 
-0.00910944 -0.0182234 -0.0280581 80 140 165 
-0.00982922 -0.0181957 -0.0292082 79 135 144 
-0.00897032 -0.018482 -0.0316249 62 120 131 
-0.00969195 -0.0184543 -0.0327779 45 97 111 
-0.00883871 -0.0187404 -0.0352036 0 58 80 
-0.00956219 -0.0187126 -0.0363597 0 66 103 
-0.0087145 -0.0189985 -0.0387942 22 93 125 
-0.00865513 -0.0191274 -0.0405939 24 100 129 
-0.00938141 -0.0190995 -0.0417544 7 89 122 
-0.0101077 -0.0190715 -0.042915 5 97 135 
-0.010834 -0.0190436 -0.0440755 57 155 176 
-0.00999838 -0.019329 -0.0465293 108 160 174 
-0.0107265 -0.019301 -0.0476928 132 168 188 
-0.0114546 -0.019273 -0.0488564 72 141 166 
-0.0121828 -0.019245 -0.0500199 0 117 144 
-0.0113565 -0.0195301 -0.0524885 2 135 166 
-0.0105339 -0.0198151 -0.0549631 0 144 176 
-0.0112658 -0.0197869 -0.0561326 19 144 178 
-0.0104488 -0.0200716 -0.058616 37 142 175 
-0.0111825 -0.0200434 -0.0597885 68 143 176 
-0.0111436 -0.0201716 -0.061621 95 142 171 
-0.0118783 -0.0201433 -0.0627949 122 144 165 
0.0341518 -0.0206009 0.0504681 153 174 180 
0.0334367 -0.0205734 0.0493253 153 174 191 
0.0327215 -0.0205459 0.0481826 136 151 162 
0.0320064 -0.0205184 0.04704 119 144 144 
0.0312913 -0.0204909 0.0458972 148 166 167 
0.0305762 -0.0204634 0.0447545 155 166 168 
0.029861 -0.0204359 0.0436119 158 161 165 
0.0291459 -0.0204084 0.0424691 158 159 168 
0.0284308 -0.0203809 0.0413264 166 172 175 
0.0294041 -0.0206751 0.0390924 172 171 174 
0.0286871 -0.0206476 0.0379467 184 190 198 
0.0296549 -0.0209416 0.0357038 132 190 199 
0.028936 -0.0209139 0.0345552 0 185 204 
0.0282171 -0.0208863 0.0334065 128 195 218 
0.0274983 -0.0208586 0.0322579 110 141 172 
0.0276181 -0.0209916 0.0305547 65 39 89 
0.0260606 -0.0208033 0.0299605 77 0 0 
0.0236682 -0.0204545 0.0299269 71 0 0 
0.0212795 -0.0201058 0.0298994 129 90 97 
0.0188946 -0.0197573 0.0298777 190 112 113 
0.0181813 -0.0197298 0.0287379 255 183 187 
0.0166349 -0.0195419 0.0281616 252 183 164 
0.0142583 -0.0191937 0.0281533 183 106 91 
0.0135478 -0.0191664 0.0270181 180 98 86 
0.0111768 -0.0188184 0.0270187 189 109 95 
0.00963885 -0.0186308 0.0264558 123 81 63 
0.00727439 -0.018283 0.0264667 114 108 127 
0.00491357 -0.0179354 0.0264837 96 140 179 
0.00420964 -0.0179083 0.0253588 102 168 196 
0.00185436 -0.0175609 0.0253848 109 168 190 
0.00115222 -0.0175339 0.0242628 100 162 189 
0.000450134 -0.0175069 0.0231409 118 169 192 
-0.000252008 -0.0174799 0.022019 127 180 197 
-0.000954092 -0.0174529 0.0208972 117 181 189 
-0.00165617 -0.0174259 0.0197753 73 170 179 
-0.00235832 -0.0173989 0.0186533 53 149 154 
-0.0030604 -0.0173719 0.0175314 4 123 134 
-0.00376254 -0.0173449 0.0164095 36 81 103 
-0.00446463 -0.0173179 0.0152875 37 0 9 
-0.00516677 -0.0172909 0.0141658 86 30 21 
-0.00586885 -0.0172639 0.0130438 157 152 152 
-0.004942 -0.0175563 0.0107354 174 153 147 
-0.00564599 -0.0175292 0.00961053 128 133 137 
-0.00797522 -0.0171828 0.00967801 134 117 120 
-0.0086773 -0.0171558 0.00855613 127 117 126 
-0.0077579 -0.017448 0.00623596 135 115 113 
-0.00846189 -0.0174209 0.0051111 112 114 123 
-0.00916582 -0.0173939 0.00398624 101 78 84 
-0.00825393 -0.0176857 0.00165415 53 6 30 
-0.00895977 -0.0176586 0.000526309 39 50 59 
-0.00805342 -0.0179502 -0.00181472 32 66 53 
-0.00795597 -0.0180824 -0.00355363 56 92 79 
-0.00866455 -0.0180551 -0.004686 29 94 77 
-0.0077666 -0.0183465 -0.00704026 37 85 75 
-0.00847709 -0.0183192 -0.00817549 53 51 44 
-0.00758469 -0.0186103 -0.0105388 27 74 89 
-0.00829703 -0.0185829 -0.0116771 27 103 100 
-0.00820971 -0.0187147 -0.0134324 20 73 64 
-0.00892299 -0.0186872 -0.014572 23 47 36 
-0.00963628 -0.0186598 -0.0157118 0 38 36 
-0.00875604 -0.0189505 -0.0180944 0 37 48 
-0.00947118 -0.0189229 -0.019237 0 29 51 
-0.0101863 -0.0188954 -0.0203798 0 20 69 
-0.00931334 -0.0191858 -0.0227743 0 27 86 
-0.00844425 -0.0194761 -0.0251747 9 122 151 
-0.00916308 -0.0194484 -0.0263234 73 138 168 
-0.00909072 -0.0195796 -0.0281024 76 130 153 
-0.00981051 -0.0195519 -0.0292525 47 126 147 
-0.0089516 -0.0198418 -0.0316693 6 100 125 
-0.00967324 -0.019814 -0.0328225 0 89 117 
-0.00881988 -0.0201036 -0.0352482 0 63 96 
-0.00797027 -0.0203931 -0.0376798 0 64 112 
-0.00869566 -0.0203652 -0.0388387 30 103 130 
-0.00863624 -0.0204959 -0.0406386 35 106 124 
-0.00936252 -0.020468 -0.0417992 39 99 119 
-0.0100888 -0.02044 -0.0429597 28 115 126 
-0.0092513 -0.0207291 -0.0454106 96 160 172 
