ply
format ascii 1.0
comment PCL generated
element vertex 943
property float x
property float y
property float z
property uchar red
property uchar green
property uchar blue
element camera 0
property float view_px
property float view_py
property float view_pz
property float x_axisx
property float x_axisy
property float x_axisz
property float y_axisx
property float y_axisy
property float y_axisz
property float z_axisx
property float z_axisy
property float z_axisz
property float focal
property float scalex
property float scaley
property float centerx
property float centery
property int viewportx
property int viewporty
property float k1
property float k2
end_header
-0.0081734657 0.0083179027 -0.026225388 188 176 164
-0.0073570609 0.0081490651 -0.02870369 188 171 160
-0.006544292 0.007980369 -0.031187892 181 171 161
-0.0065128207 0.0079103112 -0.033028841 175 173 166
-0.0072595477 0.0079387799 -0.034222066 184 174 169
0.024499118 0.0056750476 0.025904059 191 189 183
0.022116542 0.0059070662 0.025880098 193 193 193
0.018099248 0.0063426271 0.027026772 186 194 190
0.017362714 0.0063707009 0.025849938 154 172 172
0.014173925 0.0067040846 0.026429176 123 131 136
0.010174274 0.007138975 0.027604222 150 115 111
0.0078130364 0.0073701888 0.027614355 142 126 119
0.0054556727 0.0076012611 0.027630448 183 166 162
0.0047293901 0.0076289475 0.026469946 173 164 157
0.0040030479 0.0076566339 0.025309443 151 148 142
0.0024648905 0.0077858716 0.024743199 148 142 139
0.001739502 0.0078135133 0.023584127 155 139 132
0.0018242002 0.0077396855 0.021827817 141 144 134
0.001097858 0.0077673644 0.020667195 152 148 138
0.00037157536 0.0077950507 0.019506693 149 144 140
-0.00035470724 0.0078227296 0.01834619 149 147 154
-0.0010810494 0.007850416 0.017185569 147 123 145
-0.001807332 0.0078781024 0.016025066 93 70 76
-0.00092488527 0.0077032447 0.013652205 90 49 29
-0.0016530156 0.0077309981 0.012488723 118 69 52
-0.0023812056 0.0077587515 0.01132524 91 30 22
-0.0031093359 0.0077865049 0.010161757 70 0 0
-0.0038375258 0.0078142583 0.0089981556 39 0 0
-0.0029661059 0.0076398328 0.0066074133 138 115 114
-0.0020985007 0.0074655414 0.0042108297 162 150 127
-0.0028303862 0.0074934363 0.0030413866 121 143 153
-0.0019683838 0.007319361 0.00063574314 163 147 156
-0.002702117 0.0073473305 -0.00053656101 191 160 170
-0.0034358501 0.0073752925 -0.0017091036 185 149 155
-0.0041695833 0.007403262 -0.0028814077 74 0 0
-0.0041100979 0.0073303804 -0.0046778917 67 3 0
-0.0048447251 0.0073583946 -0.0058518648 136 118 110
-0.005579412 0.0073863938 -0.0070258379 158 105 114
-0.0047331452 0.0072129071 -0.0094565153 92 88 93
-0.0054696798 0.0072409809 -0.010633469 115 74 79
-0.0046290755 0.0070677176 -0.013073206 61 37 34
-0.0053674579 0.0070958659 -0.01425302 91 38 39
-0.0045323968 0.0069228187 -0.016701818 145 73 43
-0.0052726865 0.0069510415 -0.017884612 135 81 46
-0.0060129166 0.0069792494 -0.019067407 131 77 36
-0.0067531466 0.0070074722 -0.020250201 133 81 32
-0.0059273839 0.0068347827 -0.022713721 146 127 107
-0.0066694617 0.0068630651 -0.023899555 172 147 133
-0.0074115992 0.0068913549 -0.02508533 189 180 166
-0.008153677 0.0069196373 -0.026271105 190 178 166
-0.0073372126 0.006747283 -0.028749526 192 175 164
-0.0065244436 0.0065750927 -0.031233847 183 173 163
-0.0064929128 0.0065032765 -0.033074856 175 173 166
-0.0072396994 0.0065317452 -0.034268081 181 172 166
0.014193416 0.0053215846 0.026383996 138 150 166
0.010193706 0.0057634786 0.027559161 103 111 112
0.0062013268 0.0062050968 0.028746247 123 121 121
0.0046603084 0.0063361898 0.028175592 170 162 159
0.0039349198 0.0063638389 0.027016521 174 164 161
0.0032095313 0.006391488 0.025857568 163 151 148
0.0024842024 0.0064191371 0.024698496 156 144 141
0.0017588139 0.0064467788 0.023539424 152 116 95
0.0010334253 0.0064744279 0.022380352 132 119 82
0.00030809641 0.006502077 0.02122128 166 152 133
-0.00041729212 0.0065297261 0.020062327 163 151 147
-0.00033539534 0.0064542443 0.018301368 153 147 152
-0.0010616779 0.0064819306 0.017140865 134 127 140
-0.0017879605 0.006509617 0.015980363 102 79 78
-0.0025143027 0.0065372959 0.014819741 91 53 16
-0.0032405853 0.0065649822 0.013659239 129 50 28
-0.0039668679 0.0065926686 0.012498736 103 32 14
-0.0030899644 0.0064145252 0.010116816 80 0 0
-0.0038180947 0.0064422786 0.0089533329 113 0 0
-0.0045462847 0.0064700395 0.007789731 177 131 120
-0.0036767125 0.0062921569 0.0053960085 213 164 154
-0.0028108954 0.0061144307 0.0029963255 169 157 152
-0.0035427809 0.0061423257 0.0018268824 188 162 152
-0.0026825666 0.0059648305 -0.00058186054 178 165 169
-0.0034162998 0.0059927925 -0.0017542839 184 159 167
-0.004150033 0.006020762 -0.0029267073 91 12 32
-0.004090488 0.0059461221 -0.0047231913 70 0 0
-0.0048251748 0.0059741214 -0.0058971643 122 38 0
-0.0055598617 0.0060021207 -0.0070710182 115 78 72
-0.0062945485 0.0060301349 -0.0082449913 116 79 88
-0.0054500699 0.0058532208 -0.010678887 105 54 85
-0.0061866045 0.0058812946 -0.011855721 90 0 0
-0.0053477883 0.0057046041 -0.014298558 76 16 0
-0.0060861707 0.0057327524 -0.015478492 107 76 59
-0.0052529573 0.005556263 -0.01793015 117 83 77
-0.0059931874 0.0055844858 -0.019112945 128 76 64
-0.0067334771 0.0056126937 -0.020295858 130 54 32
-0.0059075952 0.0054365024 -0.022759438 168 99 60
-0.0066497326 0.0054647848 -0.023945272 177 136 83
-0.0073918104 0.0054930747 -0.025131047 183 181 159
-0.0081339478 0.0055213571 -0.026316881 192 181 167
-0.0073174238 0.0053455159 -0.028795362 183 177 167
-0.0065045953 0.0051698014 -0.031279802 183 173 163
-0.0072504282 0.0051982328 -0.032471538 186 174 164
-0.0072197914 0.0051247105 -0.034314096 175 174 165
0.0054050088 0.0049418211 0.029289961 116 114 114
0.0046796203 0.0049694702 0.028130889 169 161 157
0.0039542317 0.0049971193 0.026971936 171 160 157
0.0032288432 0.0050247684 0.025812864 163 151 148
0.0025035143 0.0050524175 0.024653792 146 133 131
0.0017781258 0.0050800592 0.02349472 138 102 81
0.0010527372 0.0051077083 0.022335649 107 94 58
0.00032740831 0.0051353574 0.021176577 159 145 126
-0.00039798021 0.0051630065 0.020017505 163 151 147
-0.0011233687 0.0051906556 0.018858552 152 145 151
-0.001042366 0.0051134452 0.017096162 142 135 148
-0.0017686486 0.0051411316 0.01593554 126 104 103
-0.0024949312 0.0051688105 0.014775038 105 67 30
-0.0032212138 0.0051964968 0.013614535 119 39 18
-0.003947556 0.0052241832 0.012453914 76 4 0
-0.0030705929 0.0050425231 0.010071993 82 0 0
-0.0037987232 0.0050702766 0.008908391 106 0 0
-0.0045269132 0.0050980374 0.0077449083 127 81 70
-0.0036572218 0.0049166605 0.0053509474 134 85 75
-0.0027914643 0.00473544 0.0029511452 83 71 66
-0.0035232902 0.004763335 0.001781702 93 66 57
-0.0026630163 0.0045823231 -0.00062704086 128 115 119
-0.0033967495 0.0046102852 -0.0017994642 149 124 132
-0.0041304827 0.0046382546 -0.0029718876 117 37 57
-0.0040709376 0.0045618638 -0.0047684908 69 0 0
-0.0048056245 0.004589878 -0.0059424639 80 0 0
-0.0055403113 0.0046178773 -0.0071163177 25 0 0
-0.0062749386 0.0046458766 -0.0082901716 161 124 132
-0.0070096254 0.0046738759 -0.0094641447 171 120 151
-0.0061669946 0.0044935346 -0.01190114 91 0 0
-0.0069035292 0.0045216084 -0.013077974 64 5 0
-0.0060665011 0.0043414906 -0.015523911 110 80 62
-0.0068048835 0.0043696389 -0.016703725 121 86 80
-0.0059734583 0.0041897222 -0.019158602 164 112 100
-0.006713748 0.0042179301 -0.020341516 167 90 68
-0.0074539781 0.0042461529 -0.02152431 134 66 27
-0.0066299438 0.004066512 -0.023990989 137 96 43
-0.0073720813 0.0040948018 -0.025176764 168 166 144
-0.0081141591 0.0041230842 -0.026362598 192 181 167
-0.0072975755 0.0039437339 -0.028841197 188 183 172
-0.0080415606 0.0039720908 -0.030029953 190 180 170
-0.0072305799 0.0037929565 -0.032517493 191 178 169
-0.0071998835 0.0037176758 -0.034360051 182 181 172
0.0054243207 0.0035750791 0.029245257 109 111 99
0.0046989322 0.0036027282 0.028086305 161 158 154
0.0023460388 0.003844142 0.028110147 164 160 156
0.0016225576 0.003871724 0.026954055 161 154 155
0.00089901686 0.0038992986 0.025797963 143 130 134
0.00017553568 0.0039268807 0.024641871 125 108 79
-0.0005480051 0.0039544553 0.02348578 88 78 0
0.00034672022 0.0037686154 0.021131873 144 138 114
-0.00037866831 0.0037962645 0.01997292 157 153 145
-0.0011040568 0.0038239136 0.018813848 151 149 149
-0.0010229945 0.0037449598 0.017051339 150 138 140
-0.0017492771 0.0037726462 0.015890837 128 101 87
-0.0024756193 0.0038003251 0.014730334 124 78 45
-0.0015948415 0.0036150292 0.012354136 120 35 0
-0.0023230314 0.0036427826 0.011190534 89 0 0
-0.0030511618 0.003670536 0.010027051 84 0 0
-0.0037793517 0.0036982894 0.0088635683 39 0 0
-0.0045074821 0.0037260503 0.0077000856 78 5 0
-0.0036377907 0.003541179 0.0053060055 0 0 0
-0.002771914 0.0033564419 0.0029060841 56 0 0
-0.0035037994 0.0033843368 0.0017366409 0 0 0
-0.002643466 0.0031998232 -0.00067222118 82 87 86
-0.0033771992 0.0032277852 -0.0018446445 98 95 103
-0.004110992 0.0032557547 -0.0030170679 65 36 41
-0.0048447251 0.0032837242 -0.0041894913 37 0 0
-0.0047860742 0.0032056198 -0.0059876442 74 0 0
-0.0055207014 0.003233619 -0.0071614981 79 0 0
-0.0062553883 0.0032616183 -0.0083354712 174 130 139
-0.0069900751 0.0032896176 -0.0095094442 186 144 167
-0.0061473846 0.003105782 -0.011946559 86 0 15
-0.0068839192 0.0031338558 -0.013123393 72 0 0
-0.0060468316 0.0029502138 -0.015569448 121 62 42
-0.0067852139 0.0029783621 -0.016749263 128 89 77
-0.0059537888 0.0027949437 -0.019204259 132 119 110
-0.0066940188 0.0028231516 -0.020387053 130 99 83
-0.0074342489 0.0028513744 -0.021569848 122 74 14
-0.0081745386 0.0028795823 -0.022752702 134 91 30
-0.0073522925 0.002696529 -0.02522248 183 165 132
-0.00809443 0.0027248114 -0.026408315 196 174 145
-0.0088365078 0.0027531013 -0.02759409 186 186 172
-0.0080217719 0.0025703087 -0.030075788 188 177 168
-0.0087656975 0.0025986657 -0.031264603 184 175 167
-0.0079565644 0.0024160966 -0.033755183 189 177 172
0.0054436326 0.0022083446 0.029200673 100 101 90
0.0030888319 0.0024533346 0.029221654 159 156 152
0.0023653507 0.0024809092 0.028065562 164 160 156
0.0016418099 0.0025084913 0.026909471 168 161 162
0.00091832876 0.0025360659 0.025753379 167 154 159
0.00019478798 0.0025636479 0.024597287 132 115 86
-0.0005286932 0.0025912225 0.023441195 110 100 3
-0.001252234 0.0026187971 0.022285104 132 126 102
-0.0003593564 0.00242953 0.019928217 155 151 143
-0.0010846853 0.0024571791 0.018769145 156 153 154
-0.0010036826 0.0023764744 0.017006636 149 137 139
-0.0017299652 0.0024041608 0.015846133 123 95 82
-0.0024562478 0.0024318397 0.014685512 124 78 45
-0.00318259 0.0024595261 0.013525009 118 32 0
-0.0039088726 0.0024872124 0.012364507 87 0 0
-0.0030317903 0.0022985488 0.0099822283 84 0 0
-0.0037599206 0.0023263022 0.0088187456 41 0 0
-0.0044881105 0.0023540631 0.0076552629 107 34 14
-0.0036183596 0.0021656826 0.0052610636 34 48 34
-0.0043483973 0.0021935031 0.0040946007 151 77 75
-0.0034843087 0.0020053312 0.0016914606 79 89 80
-0.0026239753 0.0018173158 -0.00071752071 98 103 102
-0.0033577085 0.0018452778 -0.0018898249 104 101 108
-0.0040914416 0.0018732473 -0.0030623674 89 61 65
-0.0048251748 0.0019012168 -0.0042346716 40 0 0
-0.005558908 0.0019291788 -0.0054072142 73 0 0
-0.0055011511 0.0018493608 -0.0072067976 79 0 0
-0.0062358379 0.0018773749 -0.0083807707 174 130 139
-0.0069705248 0.0019053742 -0.0095546246 184 142 165
-0.0061277747 0.0017180219 -0.011991858 96 0 25
-0.0068643093 0.0017460957 -0.013168693 70 0 0
-0.0060271621 0.001558952 -0.015614867 104 45 25
-0.0067655444 0.0015871003 -0.016794801 119 79 68
-0.0059340596 0.0014001653 -0.019249797 140 127 118
-0.0066742897 0.0014283881 -0.020432591 131 100 85
-0.0074145794 0.001456596 -0.021615505 93 45 0
-0.0081548095 0.0014848188 -0.0227983 111 68 7
-0.0073325634 0.0012982562 -0.025268197 162 144 111
-0.0080746412 0.0013265386 -0.026454031 188 165 137
-0.0088167787 0.0013548285 -0.027639806 189 189 176
-0.0080019236 0.0011685416 -0.030121684 195 184 175
-0.0087459087 0.0011968985 -0.031310439 186 177 169
-0.0079366565 0.0010108128 -0.033801138 189 177 172
0.0031080842 0.0010901019 0.02917707 164 157 144
0.002384603 0.0011176765 0.028020978 164 161 155
0.0016610622 0.0011452585 0.026864886 165 163 163
0.00093758106 0.0011728331 0.025708795 173 162 154
0.00021404028 0.0012004152 0.024552703 133 108 87
-0.0005094409 0.0012279898 0.023396611 114 81 50
-0.0012329221 0.0012555644 0.02224052 149 115 88
-0.0019564629 0.0012831464 0.021084428 171 148 135
-0.0010653734 0.0010904521 0.018724442 166 150 144
-0.0017907619 0.0011181012 0.01756537 164 137 135
-0.0025161505 0.0011457503 0.016406298 143 104 85
-0.0024369359 0.0010633543 0.014640808 126 85 46
-0.0031632185 0.0010910407 0.013480306 93 19 0
-0.0038895011 0.001118727 0.012319684 80 0 0
-0.0030124187 0.00092656165 0.0099374056 80 0 0
-0.0037405491 0.00095431507 0.0087739229 64 0 0
-0.004468739 0.00098207593 0.007610321 80 78 78
-0.0035989285 0.00079018623 0.0052160025 133 83 98
-0.0043289661 0.00081800669 0.0040496588 160 132 139
-0.003464818 0.00062634051 0.0016463995 171 130 130
-0.0041967034 0.00065423548 0.00047695637 158 142 144
-0.0033381581 0.00046277791 -0.0019351244 175 149 151
-0.0040718913 0.00049074739 -0.0031075478 124 109 112
-0.0048056245 0.00051871687 -0.0042799711 90 30 58
-0.0055393577 0.0005466789 -0.0054523945 56 0 0
-0.0054816008 0.00046511739 -0.0072520971 70 0 0
-0.0062162876 0.00049311668 -0.0084260702 147 126 129
-0.0069509149 0.00052111596 -0.0095999241 199 155 176
-0.0061081648 0.00033026189 -0.012037277 102 9 9
-0.0068446994 0.00035833567 -0.013214111 72 0 0
-0.0060074925 0.00016769022 -0.015660405 102 50 31
-0.0067458749 0.00019583851 -0.016840339 109 75 69
-0.0059143305 5.4016709e-06 -0.019295454 130 127 130
-0.0066546202 3.362447e-05 -0.020478249 133 99 105
-0.0073948503 6.1832368e-05 -0.021661162 111 38 4
-0.0081350803 9.0055168e-05 -0.022843897 121 57 17
-0.0073127747 -0.00010001659 -0.025313973 187 137 97
-0.0080549121 -7.173419e-05 -0.026499748 191 156 103
-0.0087969899 -4.3444335e-05 -0.027685523 192 180 150
-0.0079821348 -0.00023324043 -0.03016746 196 175 158
-0.00872612 -0.00020488352 -0.031356275 193 170 149
-0.0079168081 -0.00039446354 -0.033847094 182 171 143
0.0014978051 -4.8793852e-05 0.030312777 160 153 141
0.00077617168 -2.1286309e-05 0.029159665 162 160 154
5.453825e-05 6.2212348e-06 0.028006554 170 167 168
-0.00066715479 3.3728778e-05 0.026853442 170 159 152
-0.0013887882 6.1236322e-05 0.025700331 121 97 76
-0.0021104217 8.8743865e-05 0.024547219 110 78 47
-0.0012136698 -0.00010766834 0.022195935 142 108 81
-0.0019372106 -8.0086291e-05 0.021039963 165 142 130
-0.0026606917 -5.2511692e-05 0.019883871 156 140 133
-0.00177145 -0.00024863333 0.017520666 164 137 135
-0.0024968386 -0.00022098422 0.016361594 163 123 105
-0.0024175644 -0.00030513108 0.014596105 152 110 72
-0.003143847 -0.00027744472 0.013435483 87 13 0
-0.0038701892 -0.00024975836 0.012274981 80 0 0
-0.0045964718 -0.00022207946 0.011114478 81 0 0
-0.0037211776 -0.0004176721 0.008728981 70 0 0
-0.0044493079 -0.00038991123 0.0075654984 88 86 86
-0.0051774979 -0.00036215782 0.0064018965 147 97 112
-0.0043094754 -0.00055747479 0.0040045977 197 170 176
-0.0050395131 -0.00052965432 0.0028381348 191 150 150
-0.0041772127 -0.00072477013 0.00043189526 156 139 142
-0.0049090981 -0.0006968677 -0.00073754787 170 144 146
-0.004052341 -0.00089175999 -0.0031527281 135 121 123
-0.0047860742 -0.00086379051 -0.0043251514 91 31 59
-0.0055198073 -0.00083582848 -0.0054975748 54 0 0
-0.0062535405 -0.000807859 -0.0066699982 68 0 0
-0.0061966777 -0.00089114159 -0.0084712505 105 84 87
-0.0069313645 -0.00086314231 -0.0096452236 132 89 110
-0.0060885549 -0.0010574907 -0.012082696 85 0 0
-0.0068250895 -0.0010294169 -0.01325953 78 0 0
-0.005987823 -0.0012235865 -0.015705943 108 55 37
-0.0067262053 -0.0011954382 -0.016885757 110 76 70
-0.0058946013 -0.0013893619 -0.019341111 136 133 135
-0.006634891 -0.0013611391 -0.020523906 138 104 109
-0.0073751211 -0.0013329312 -0.0217067 93 20 0
-0.0081153512 -0.0013047084 -0.022889555 110 47 7
-0.0072930455 -0.001498282 -0.02535969 181 131 91
-0.0080351233 -0.0014699996 -0.026545465 178 144 90
-0.0087772608 -0.0014417097 -0.02773124 181 168 138
-0.0079623461 -0.0016350225 -0.030213356 179 157 140
-0.0087062716 -0.0016066656 -0.031402111 162 140 119
-0.0078969598 -0.0017997399 -0.033893049 153 142 114
0.0015169978 -0.0014085174 0.030268312 156 148 136
0.00079536438 -0.0013810098 0.0291152 161 159 152
7.3730946e-05 -0.0013535023 0.027962089 164 168 168
-0.00064790249 -0.0013259947 0.026808977 166 158 155
-0.0013695955 -0.0012984872 0.025655866 110 95 70
-0.002091229 -0.0012709796 0.024502873 90 54 0
-0.0028128624 -0.0012434795 0.023349643 150 103 79
-0.0019178987 -0.0014433041 0.020995378 171 140 138
-0.0026414394 -0.0014157295 0.019839287 138 138 124
-0.0017521381 -0.0016153753 0.017475963 157 125 84
-0.0024775267 -0.0015877262 0.01631701 153 124 95
-0.0023982525 -0.0016736165 0.014551282 153 114 80
-0.0031245351 -0.0016459301 0.013390779 87 11 0
-0.0038508177 -0.0016182438 0.012230277 82 0 0
-0.0045771599 -0.0015905648 0.011069655 86 0 0
-0.0037017465 -0.0017896667 0.0086841583 86 0 0
-0.0044299364 -0.0017619058 0.0075205564 119 42 40
-0.0051581264 -0.0017341524 0.0063570738 156 90 91
-0.0042900443 -0.0019329861 0.0039596558 193 150 157
-0.005020082 -0.0019051507 0.0027931929 164 147 152
-0.004157722 -0.0021037608 0.00038683414 105 126 125
-0.0048896074 -0.0020758584 -0.00078260899 128 131 122
-0.0040327907 -0.0022742599 -0.0031979084 131 122 116
-0.0047665238 -0.0022462904 -0.0043703318 98 80 85
-0.005500257 -0.0022183284 -0.0055427551 90 70 69
-0.0062340498 -0.0021903589 -0.0067151785 103 61 70
-0.0061771274 -0.0022753999 -0.0085165501 157 87 92
-0.0069118142 -0.0022474006 -0.0096904039 145 80 102
-0.0060689449 -0.0024452507 -0.012127995 77 0 0
-0.0068054795 -0.002417177 -0.01330483 72 0 0
-0.0059681535 -0.0026148334 -0.015751481 90 44 40
-0.0067065954 -0.0025866851 -0.016931295 119 62 74
-0.0058749318 -0.0027841255 -0.019386649 143 96 108
-0.0066151619 -0.0027559176 -0.020569444 134 81 83
-0.007355392 -0.0027276948 -0.021752238 94 18 0
-0.0080956817 -0.0026994869 -0.022935152 121 34 0
-0.0072732568 -0.0028965622 -0.025405407 180 124 90
-0.0080153942 -0.0028682798 -0.026591182 175 135 77
-0.0071985126 -0.0030651465 -0.029070377 190 165 126
-0.0063854456 -0.0032618865 -0.031555533 167 159 131
-0.0071312785 -0.0032334551 -0.032747269 159 149 118
0.017519593 -0.0047313645 0.025486946 255 255 255
0.016783059 -0.0047032908 0.024309993 255 255 255
0.0070629716 -0.0034019873 0.029593587 122 141 152
0.0038894415 -0.003027156 0.030199409 69 82 43
0.0015362501 -0.0027682409 0.030223846 150 143 130
0.00081461668 -0.0027407333 0.029070735 161 159 152
9.2923641e-05 -0.0027132258 0.027917624 166 171 170
-0.00062870979 -0.0026857182 0.026764512 168 160 156
-0.0013503432 -0.0026582107 0.02561152 107 93 68
-0.0020720363 -0.0026307032 0.024458289 120 84 22
-0.0027936697 -0.0026032031 0.023305297 142 95 71
-0.0035153031 -0.0025756955 0.022152066 154 123 121
-0.0026221871 -0.0027789623 0.019794703 104 104 91
-0.0017328262 -0.0029820949 0.017431378 123 91 51
-0.0024581552 -0.0029544458 0.016272187 117 88 59
-0.002378881 -0.0030421019 0.014506578 129 91 56
-0.0031052232 -0.0030144155 0.013346076 80 4 0
-0.0038315058 -0.0029867291 0.012185454 86 0 0
-0.0045577884 -0.0029590502 0.011024952 87 0 0
-0.003682375 -0.0031616613 0.0086392164 80 0 0
-0.0044105649 -0.0031339005 0.0074757338 62 0 0
-0.0051386952 -0.0031061471 0.0063122511 82 15 17
-0.0042706132 -0.0033084676 0.0039147139 178 135 142
-0.0050006509 -0.0032806471 0.0027481318 135 118 123
-0.0057306886 -0.0032528266 0.0015816689 28 49 48
-0.0048701167 -0.003454864 -0.0008276701 101 105 95
-0.0056020021 -0.0034269691 -0.0019972324 135 125 120
-0.0063338876 -0.0033990741 -0.0031666756 129 112 117
-0.0054807663 -0.0036008283 -0.0055879354 175 155 154
-0.0062144995 -0.0035728589 -0.006760478 196 154 163
-0.006157577 -0.0036596581 -0.0085618496 215 146 150
-0.0068922639 -0.0036316589 -0.0097357035 167 103 124
-0.006049335 -0.0038330108 -0.012173414 69 0 0
-0.0067858696 -0.003804937 -0.013350248 65 0 0
-0.0059484839 -0.0040061101 -0.0157969 81 34 30
-0.0066869259 -0.0039779618 -0.016976714 112 55 67
-0.0058552027 -0.004178904 -0.019432187 135 88 100
-0.0065954328 -0.0041506961 -0.020615101 129 76 78
-0.0073357224 -0.0041224733 -0.021797895 94 18 0
-0.0080759525 -0.0040942654 -0.02298075 119 32 0
-0.007253468 -0.004294835 -0.025451124 175 118 84
-0.0079956055 -0.0042665526 -0.026636899 176 136 79
-0.0071787238 -0.0044669285 -0.029116213 194 168 129
-0.0063655972 -0.0046671554 -0.031601429 178 169 141
-0.0071113706 -0.004638724 -0.032793164 203 193 163
0.015817225 -0.0057943687 0.028367162 211 171 168
0.015083492 -0.0057663992 0.027194738 255 255 255
0.014349759 -0.0057384297 0.026022315 255 255 255
0.0070823431 -0.0047704652 0.029548764 142 151 152
0.0039086938 -0.0043903813 0.030154824 59 69 60
0.0015554428 -0.0041279495 0.030179381 140 136 127
0.00083380938 -0.0041004419 0.02902627 164 157 151
0.00011217594 -0.0040729344 0.027873158 170 172 167
-0.0006095171 -0.0040454268 0.026720166 161 161 156
-0.0013311505 -0.0040179193 0.025566936 129 101 94
-0.002052784 -0.0039904118 0.024413943 99 98 80
-0.0027744174 -0.0039629117 0.023260713 149 106 93
-0.0034961104 -0.0039354041 0.02210772 148 127 122
-0.0026028752 -0.0041421875 0.019750118 137 120 102
-0.0017135143 -0.0043488294 0.017386556 150 102 82
-0.0024388433 -0.0043211803 0.016227603 157 88 56
-0.0031642318 -0.0042935312 0.015068531 134 74 0
-0.0030858517 -0.0043828934 0.013301253 83 2 0
-0.0038121343 -0.0043552071 0.012140751 88 0 0
-0.0045384765 -0.0043275282 0.010980248 87 0 0
-0.0036630034 -0.0045336485 0.0085943937 60 0 0
-0.0043911338 -0.0045058876 0.0074309111 75 0 0
-0.0051193237 -0.0044781342 0.0062674284 79 7 0
-0.0042511821 -0.0046839789 0.0038696527 138 121 103
-0.0049812198 -0.0046561435 0.0027031898 123 93 73
-0.0057111979 -0.004628323 0.001536727 85 57 27
-0.0064412355 -0.0046005026 0.00037026405 144 100 88
-0.0055825114 -0.0048059747 -0.0020422935 170 109 87
-0.0063143969 -0.0047780797 -0.0032117367 139 105 56
-0.005461216 -0.0049833208 -0.005633235 127 152 151
-0.0061949492 -0.0049553514 -0.0068055391 169 160 173
-0.0061380267 -0.0050439164 -0.0086070299 122 135 156
-0.006872654 -0.0050159171 -0.009781003 105 97 121
-0.0060297251 -0.0052207708 -0.012218833 92 0 0
-0.0051904917 -0.0054255053 -0.014662504 20 0 0
-0.005928874 -0.005397357 -0.015842319 109 27 27
-0.0066672564 -0.0053692088 -0.017022252 99 48 52
-0.0058354735 -0.0055736676 -0.019477844 99 91 88
-0.0065757632 -0.0055454597 -0.020660758 126 81 66
-0.0073159933 -0.0055172369 -0.021843553 105 23 0
-0.0080562234 -0.005489029 -0.023026347 116 16 0
-0.0072337389 -0.0056931153 -0.02549684 172 112 81
-0.0079758167 -0.0056648329 -0.026682615 175 132 82
-0.0071589351 -0.0058687106 -0.029162049 188 160 135
-0.0063456893 -0.0060724467 -0.031647384 188 167 150
-0.0070915222 -0.0060440153 -0.032839179 201 187 176
0.015836775 -0.0071768835 0.028321981 207 167 165
0.015103042 -0.007148914 0.027149558 255 255 255
0.014369309 -0.0071209446 0.025977135 255 255 255
0.0071017146 -0.0061389655 0.029504061 150 159 160
0.0039279461 -0.005753614 0.03011024 82 92 84
-5.5074692e-05 -0.005249314 0.031315804 136 132 124
-0.00077486038 -0.0052218735 0.030165672 161 153 148
-0.0014946461 -0.0051944405 0.029015422 166 168 163
-0.0022144318 -0.005167 0.027865291 159 158 154
-0.0029342175 -0.005139567 0.026715159 176 149 142
-0.0036540627 -0.0051121339 0.025565028 159 158 140
-0.0027552247 -0.0053226426 0.023216367 184 141 128
-0.0034768581 -0.0052951351 0.022063136 153 132 126
-0.0025836229 -0.0055054203 0.019705534 151 134 116
-0.0016942024 -0.0057155639 0.017341971 180 132 112
-0.0024195313 -0.0056879148 0.016182899 163 94 62
-0.0031449199 -0.0056602657 0.015023828 125 66 0
-0.0030665398 -0.0057513937 0.01325655 84 3 0
-0.0037928224 -0.0057237074 0.012095928 90 0 0
-0.004519105 -0.0056960285 0.010935426 87 0 0
-0.0052453876 -0.0056683421 0.0097749233 65 0 0
-0.0043717623 -0.0058778822 0.0073860884 140 51 45
-0.0050999522 -0.0058501288 0.0062224865 142 70 45
-0.0058280826 -0.0058223754 0.0050590038 144 127 109
-0.0065562129 -0.005794622 0.0038955212 122 92 72
-0.0056917667 -0.0060038045 0.0014916658 76 47 18
-0.0064218044 -0.005975984 0.00032532215 128 84 73
-0.0071518421 -0.0059481487 -0.00084125996 154 93 71
-0.0062949061 -0.0061570629 -0.0032567978 120 87 37
-0.0054416656 -0.0063658357 -0.0056784153 94 120 118
-0.0061753988 -0.0063378662 -0.0068508387 146 137 150
-0.0061184168 -0.0064281598 -0.0086523294 85 99 120
-0.0052735806 -0.0066366196 -0.011087298 129 121 145
-0.0060101151 -0.0066085458 -0.012264132 234 125 133
-0.0051708221 -0.0068167672 -0.014708042 161 123 120
-0.0043352842 -0.0070248619 -0.017157793 141 59 59
-0.0050755143 -0.0069966391 -0.018340707 114 63 67
-0.005815804 -0.0069684312 -0.019523501 117 109 106
-0.0065560341 -0.0069402084 -0.020706296 151 107 91
-0.0072962642 -0.0069120005 -0.021889091 101 20 0
-0.0064718723 -0.0071196705 -0.024356723 113 13 0
-0.0072139502 -0.0070913807 -0.025542557 167 107 76
-0.0079560876 -0.0070630983 -0.026728332 175 132 82
-0.0071390867 -0.0072704777 -0.029207885 185 157 132
-0.006325841 -0.0074777305 -0.031693339 184 162 145
-0.0070716739 -0.0074492991 -0.032885075 200 186 174
-3.5941601e-05 -0.0066055283 0.031271458 134 132 126
-0.00075572729 -0.0065780878 0.030121207 159 155 146
-0.001475513 -0.0065506548 0.028971076 163 167 162
-0.0021952987 -0.0065232143 0.027820945 161 158 154
-0.0029150844 -0.0064957812 0.026670814 160 152 155
-0.0036348701 -0.0064683482 0.025520682 168 157 150
-0.002736032 -0.0066823661 0.023171782 161 128 113
-0.0034576654 -0.0066548586 0.02201879 156 126 94
-0.0025643706 -0.0068686455 0.01966095 148 126 105
-0.0016748905 -0.0070823058 0.017297268 161 126 107
-0.0024002194 -0.0070546567 0.016138196 136 80 51
-0.0023208857 -0.007147558 0.014372349 116 52 0
-0.0030471683 -0.0071198717 0.013211727 88 5 0
-0.0037734509 -0.0070921853 0.012051225 87 3 0
-0.0044997931 -0.0070645064 0.010890722 84 0 0
-0.0052260756 -0.0070368201 0.0097302198 87 0 0
-0.0059523582 -0.0070091337 0.0085695982 120 54 35
-0.0050805211 -0.0072221085 0.0061776638 146 90 79
-0.0058087111 -0.0071943551 0.0050141811 163 106 92
-0.0065368414 -0.0071666017 0.0038505793 124 92 79
-0.0056723356 -0.0073793158 0.0014467239 75 43 16
-0.0064023733 -0.0073514804 0.00028026104 93 47 27
-0.0071323514 -0.00732366 -0.00088620186 110 48 17
-0.0062754154 -0.0075360686 -0.0033019781 79 39 0
-0.0054221153 -0.0077483356 -0.0057235956 142 131 128
-0.0061558485 -0.0077203661 -0.006896019 161 147 156
-0.0060988665 -0.0078124031 -0.008697629 134 145 159
-0.0052539706 -0.0080243722 -0.011132598 183 157 166
-0.0059905052 -0.0079962984 -0.012309551 196 145 155
-0.0051511526 -0.008208029 -0.014753461 179 145 130
-0.0043155551 -0.0084196404 -0.01720345 100 74 69
-0.0050558448 -0.0083914325 -0.018386245 116 64 63
-0.0057960749 -0.0083632097 -0.019569039 166 117 109
-0.006536305 -0.0083350018 -0.020751834 160 118 89
-0.0057100058 -0.0085462332 -0.023216665 93 18 0
-0.0064520836 -0.0085179508 -0.024402499 99 9 0
-0.007194221 -0.0084896609 -0.025588274 166 111 84
-0.0063753128 -0.0087006316 -0.028064966 173 131 85
-0.007119298 -0.0086722746 -0.029253721 186 155 128
-0.0063059926 -0.0088830143 -0.031739295 185 160 141
-0.0070518255 -0.0088545829 -0.03293103 197 183 169
-1.6748905e-05 -0.0079617426 0.031227112 136 133 127
-0.0007365346 -0.0079343095 0.030076861 159 155 146
-0.0014563203 -0.0079068765 0.02892673 167 171 166
-0.002176106 -0.0078794435 0.027776599 165 161 157
-0.0028958917 -0.007852003 0.026626468 160 152 155
-0.0036156774 -0.0078245699 0.025476336 162 151 144
-0.0027167797 -0.0080420896 0.023127437 137 103 88
-0.0034384131 -0.0080145821 0.021974206 113 83 51
-0.0025451183 -0.0082318783 0.019616365 111 89 67
-0.001655519 -0.0084490404 0.017252564 122 88 69
-0.0015752316 -0.0085437223 0.015488029 119 63 33
-0.0023015141 -0.0085160434 0.014327526 121 58 4
-0.0030278563 -0.0084883571 0.013167024 91 9 0
-0.0037541389 -0.0084606707 0.012006402 88 4 0
-0.0044804215 -0.0084329918 0.0108459 83 0 0
-0.0052067041 -0.0084053054 0.0096853971 82 0 0
-0.0059330463 -0.0083776191 0.0085248947 102 35 16
-0.0050611496 -0.0085941032 0.0061327219 132 76 65
-0.0057892799 -0.0085663497 0.0049692392 148 91 77
-0.0065174699 -0.0085385963 0.0038057566 68 36 23
-0.0056529045 -0.0087547973 0.001401782 50 18 0
-0.0063829422 -0.0087269768 0.00023531914 102 57 37
-0.0071129203 -0.0086991414 -0.00093114376 118 56 25
-0.0062559247 -0.0089150667 -0.0033470392 97 56 1
-0.005402565 -0.0091308355 -0.0057687759 161 151 148
-0.0061363578 -0.0091028661 -0.0069411993 173 159 168
-0.0060793161 -0.0091966614 -0.0087429285 151 162 176
-0.0052343607 -0.0094121322 -0.011178017 178 153 162
-0.0043931007 -0.009627454 -0.013619184 173 121 132
-0.0051314831 -0.0095993057 -0.014798999 155 122 107
-0.0042958856 -0.009814404 -0.017248988 106 80 75
-0.0050361156 -0.0097861961 -0.018431783 124 72 72
-0.0057763457 -0.0097579733 -0.019614697 163 113 105
-0.0049481392 -0.0099727884 -0.022076607 152 110 80
-0.005690217 -0.0099444985 -0.023262382 93 18 0
-0.0064323545 -0.0099162161 -0.024448216 103 14 0
-0.0071744323 -0.0098879263 -0.025633991 169 115 87
-0.0063555241 -0.010102399 -0.028110802 174 132 87
-0.0070994496 -0.010074042 -0.029299557 184 152 125
-0.0062861443 -0.010288291 -0.03178525 184 159 140
-0.0070319772 -0.010259859 -0.032976985 197 183 169
2.4437904e-06 -0.0093179718 0.031182647 137 135 126
-0.0007173419 -0.0092905387 0.030032516 166 155 147
-0.0014371872 -0.0092631057 0.028882384 177 165 162
-0.0021569729 -0.0092356727 0.027732253 175 159 159
-0.0028767586 -0.0092082322 0.026582122 163 154 142
-0.0035965443 -0.0091807991 0.025431991 168 149 130
-0.002697587 -0.0094018131 0.023082852 135 103 69
-0.0034192204 -0.0093743056 0.02192986 131 86 38
-0.00091087818 -0.009843424 0.018366933 156 96 37
-0.00082957745 -0.0099398866 0.016603827 147 94 28
-0.00155586 -0.0099122003 0.015443325 132 75 20
-0.0022822022 -0.0098845214 0.014282823 117 54 12
-0.0030084848 -0.009856835 0.013122201 91 15 0
-0.0037347674 -0.0098291487 0.011961699 89 6 1
-0.0044611096 -0.0098014697 0.010801196 81 0 0
-0.0051873922 -0.0097737834 0.0096405745 62 0 0
-0.0059136748 -0.009746097 0.0084801912 95 70 63
-0.0050417781 -0.0099660978 0.0060878992 104 84 76
-0.0057699084 -0.0099383444 0.0049244165 100 79 41
-0.0064980388 -0.0099105909 0.0037609339 59 26 0
-0.0056334734 -0.010130309 0.0013568401 126 62 36
-0.0063634515 -0.010102473 0.00019037724 141 108 123
-0.0070934892 -0.010074653 -0.00097620487 108 78 78
-0.0046492815 -0.010541312 -0.0046416521 112 44 14
-0.0053830743 -0.01051335 -0.0058139563 145 118 102
-0.005325079 -0.010608934 -0.007614255 175 141 128
-0.0044782162 -0.010827966 -0.010046482 162 151 144
-0.0036350489 -0.011046864 -0.012484789 153 136 125
-0.0043734312 -0.011018716 -0.013664603 128 61 38
-0.0035359263 -0.01123739 -0.016111851 93 69 0
-0.0042761564 -0.011209168 -0.017294645 117 71 53
-0.0050163865 -0.01118096 -0.018477559 120 71 75
-0.0057566166 -0.011152737 -0.019660354 139 102 90
-0.0049283504 -0.011371069 -0.022122264 141 102 77
-0.0056704879 -0.011342779 -0.023308158 93 18 0
-0.0064125657 -0.011314496 -0.024493933 97 23 0
-0.0055917501 -0.011532538 -0.026967883 164 121 101
-0.0063356757 -0.011504181 -0.028156638 168 135 92
-0.0055204034 -0.011721998 -0.03063947 182 154 129
-0.0054876208 -0.011816628 -0.032479703 182 159 140
-0.0062344074 -0.011788167 -0.033672929 193 182 168
2.1576881e-05 -0.010674186 0.031138301 140 139 130
-0.00069820881 -0.010646753 0.02998817 167 156 148
-0.0014179945 -0.01061932 0.028838038 176 163 161
-0.0021377802 -0.010591887 0.027687907 174 158 158
-0.0028575659 -0.010564446 0.026537776 153 143 131
-0.0035773516 -0.010537013 0.025387645 157 139 119
-0.0026783347 -0.010761544 0.023038507 129 97 64
-0.0017830729 -0.010985903 0.020683289 141 95 48
-0.00089156628 -0.011210144 0.018322229 158 98 39
-0.00081026554 -0.011308372 0.016559124 151 99 32
-0.0015365481 -0.011280686 0.015398622 134 77 23
-0.0022628307 -0.011253007 0.014238 117 54 12
-0.0029891729 -0.01122532 0.013077497 92 16 0
-0.0037154555 -0.011197634 0.011916995 89 6 1
-0.0028378963 -0.011421345 0.0095335245 84 0 0
-0.0035660267 -0.011393592 0.0083700418 60 0 0
-0.0042942166 -0.011365831 0.0072065592 122 97 90
-0.005022347 -0.011338077 0.0060430765 146 126 118
-0.0057505369 -0.011310324 0.0048795938 138 117 80
-0.0048840046 -0.011533596 0.0024782419 142 110 65
-0.0056140423 -0.011505775 0.0013118982 222 158 132
-0.0063440204 -0.011477955 0.00014531612 171 139 153
-0.0054850578 -0.011700958 -0.0022677183 111 82 82
-0.0046297908 -0.011923812 -0.0046867132 79 12 0
-0.005363524 -0.01189585 -0.0058592558 41 15 0
-0.0053055286 -0.011993192 -0.0076594353 73 38 26
-0.0044586062 -0.012215726 -0.010091901 162 151 144
-0.0036153793 -0.012438111 -0.012530327 157 140 129
-0.0043537617 -0.012409978 -0.013710141 72 5 0
-0.0035161972 -0.012632154 -0.016157508 46 21 0
-0.0042564273 -0.012603946 -0.017340302 122 76 58
-0.0034243464 -0.012825906 -0.019796491 139 90 93
-0.0041664839 -0.012797616 -0.020982265 140 103 91
-0.0049086213 -0.012769334 -0.02216804 134 95 70
-0.0056506991 -0.012741044 -0.023353875 91 15 0
-0.0048279762 -0.012962662 -0.025824904 117 42 20
-0.0055719018 -0.012934305 -0.027013719 171 128 108
-0.0047547221 -0.013155721 -0.02949369 172 138 96
-0.0047209859 -0.013252132 -0.031332493 186 158 133
-0.0054677725 -0.01322367 -0.032525718 183 160 141
-0.0062144995 -0.013195209 -0.033718944 195 183 169
0.0023924112 -0.012313813 0.031065822 109 96 73
4.0769577e-05 -0.0120304 0.031093955 159 145 126
-0.00067901611 -0.012002967 0.029943824 170 157 150
-0.0013988018 -0.011975534 0.028793693 168 160 152
-0.0021185875 -0.011948101 0.027643561 174 160 153
-0.0028384328 -0.011920661 0.02649343 161 133 114
-0.0035582185 -0.011893228 0.025343299 152 127 86
-0.002659142 -0.012121268 0.022993922 139 102 69
-0.001763761 -0.012349136 0.020638704 141 105 72
-0.00087225437 -0.012576878 0.018277526 139 102 51
-0.00079089403 -0.012676865 0.016514421 143 96 45
-0.0015172362 -0.012649179 0.015353799 135 79 35
-0.0022435188 -0.0126215 0.014193296 115 54 18
-0.0029698014 -0.012593813 0.013032794 104 17 0
-0.003696084 -0.012566127 0.011872172 92 18 0
-0.0028185248 -0.012793332 0.0094887018 85 0 0
-0.0035466552 -0.012765579 0.0083252192 42 0 0
-0.0042747855 -0.012737818 0.0071617365 97 118 128
-0.0050029755 -0.012710065 0.0059982538 158 141 139
-0.0041345358 -0.012936927 0.0035997629 155 127 124
-0.0048645735 -0.012909107 0.0024333 149 124 105
-0.0040017962 -0.013135754 2.6106834e-05 159 149 146
-0.0047336817 -0.013107851 -0.0011433363 160 133 133
-0.0054655671 -0.013079956 -0.0023127794 116 16 3
-0.0046102405 -0.013306312 -0.0047320127 77 0 0
-0.0053439736 -0.01327835 -0.0059044361 86 3 0
-0.0037024617 -0.01363156 -0.0089603662 92 25 0
-0.0028573275 -0.013857536 -0.011395931 181 153 141
-0.0020159483 -0.014083348 -0.013837337 171 144 142
-0.002756238 -0.01405514 -0.015020251 83 20 0
-0.0034964681 -0.014026918 -0.016203046 67 0 0
-0.0026624799 -0.014252469 -0.018656373 117 97 89
-0.0034046173 -0.014224187 -0.019842148 138 115 114
-0.0041466951 -0.014195897 -0.021027923 103 99 90
-0.0048888326 -0.014167614 -0.022213817 97 75 38
-0.00563097 -0.014139324 -0.023399591 84 54 13
-0.0048081279 -0.014364429 -0.0258708 105 61 23
-0.0055521131 -0.014336072 -0.027059555 170 132 108
-0.0047348738 -0.014561005 -0.029539645 171 139 98
-0.0047010779 -0.014659166 -0.031378508 184 158 134
-0.0054478645 -0.01463069 -0.032571733 189 159 141
0.0024116039 -0.013673536 0.031021237 105 93 70
0.0016899705 -0.013646029 0.029868245 159 145 126
-0.00065988302 -0.013359189 0.029899478 170 157 150
-0.0013796687 -0.013331756 0.028749347 168 160 152
-0.0020994544 -0.013304316 0.027599216 170 157 150
-0.0028192401 -0.013276882 0.026449084 152 124 106
-0.0019182563 -0.013508491 0.024102569 136 111 69
-0.0026398897 -0.013480991 0.022949576 139 102 69
-0.00012755394 -0.013971262 0.019391894 141 105 72
-4.5239925e-05 -0.014073037 0.017630219 140 103 52
-0.00077158213 -0.01404535 0.016469598 144 97 46
-0.0014978647 -0.014017664 0.015309095 133 78 34
-0.0022241473 -0.013989985 0.014148593 113 53 17
-0.0013427734 -0.014220841 0.011770844 129 41 10
-0.0020709634 -0.014193088 0.010607362 103 28 6
-0.0027990937 -0.014165334 0.0094438791 93 0 0
-0.0035272837 -0.014137581 0.0082803965 57 0 0
-0.004255414 -0.01410982 0.0071169138 108 130 140
-0.003385067 -0.014340244 0.0047212839 187 170 168
-0.0041151047 -0.014312409 0.003554821 195 166 164
-0.0048451424 -0.014284588 0.0023883581 183 157 139
-0.0039823055 -0.014514744 -1.8954277e-05 164 153 150
-0.004714191 -0.014486842 -0.0011885166 160 133 133
-0.0054460764 -0.014458947 -0.0023579597 99 0 0
-0.0045906901 -0.014688812 -0.0047771931 76 0 0
-0.0045317411 -0.014789693 -0.0065760612 100 17 0
-0.0020992756 -0.015276946 -0.010261536 144 78 38
-0.0012559891 -0.01550635 -0.0127002 194 166 154
-0.0019962788 -0.015478127 -0.013882995 176 149 147
-0.0027365088 -0.015449919 -0.015065789 113 51 13
-0.0019006133 -0.015679024 -0.017516255 101 32 16
-0.0026427507 -0.015650742 -0.018702149 121 101 93
-0.0033848286 -0.015622444 -0.019887805 127 105 104
-0.004126966 -0.015594162 -0.021073699 86 82 74
-0.0048690438 -0.01556588 -0.022259474 95 74 36
-0.004044354 -0.015794583 -0.024727821 105 75 34
-0.0047883391 -0.015766226 -0.025916576 120 76 38
-0.0039691925 -0.015994705 -0.028393805 174 137 113
-0.0047150254 -0.015966274 -0.0295856 172 140 100
-0.0046812296 -0.016066194 -0.031424522 180 154 131
-0.0054279566 -0.016037717 -0.032617748 182 152 134
0.0024308562 -0.015033253 0.030976892 88 84 73
0.0017092228 -0.015005745 0.029823661 152 148 139
0.00098752975 -0.014978237 0.028670669 164 154 149
-0.001360476 -0.014687978 0.028705001 165 153 146
-0.0020802617 -0.014660545 0.02755487 162 148 134
-0.0011773705 -0.014895715 0.025211215 136 126 102
-0.0018990636 -0.014868207 0.024058223 125 99 74
-0.0010017753 -0.015103176 0.021705627 141 105 72
-0.00010824203 -0.015337996 0.019347191 143 104 72
-2.592802e-05 -0.015441507 0.017585397 145 104 72
-0.00075221062 -0.015413821 0.016424894 136 95 61
0.00013291836 -0.015648335 0.014052987 121 77 41
-0.00059521198 -0.015620574 0.012889504 109 49 11
-0.0013234019 -0.015592828 0.011726022 119 42 13
-0.0020515323 -0.015565068 0.010562539 110 41 18
-0.0027797222 -0.015537307 0.0093990564 91 12 0
-0.0035078526 -0.015509561 0.0082355738 103 16 0
-0.0042360425 -0.0154818 0.0070719719 175 130 142
-0.0033656359 -0.015715741 0.004676342 198 168 171
-0.0040956736 -0.01568792 0.0035098791 150 149 153
-0.0048256516 -0.0156601 0.0023434162 166 144 141
-0.0039628148 -0.015893757 -6.4134598e-05 184 152 153
-0.0031036735 -0.016127244 -0.0024775267 176 145 143
-0.0038374066 -0.016099289 -0.0036500692 79 11 0
-0.003777504 -0.016201966 -0.0054475069 68 0 0
-0.0029267073 -0.016435154 -0.0078742504 98 33 0
-0.00049602985 -0.016929321 -0.011562943 143 84 76
-0.0012363195 -0.016901113 -0.012745738 163 129 128
-0.00039666891 -0.017133869 -0.015190482 178 125 120
-0.0011387467 -0.017105587 -0.016376138 116 48 34
-0.0018808842 -0.017077304 -0.017562032 102 43 16
-0.0010486841 -0.017309792 -0.020018578 109 91 83
-0.0033650994 -0.017020725 -0.019933581 129 94 89
-0.0041071773 -0.016992442 -0.021119475 104 73 42
-0.00328058 -0.017224707 -0.023584902 96 40 0
-0.0024576783 -0.017456837 -0.02605629 147 86 32
-0.0032035112 -0.01742842 -0.027248025 148 105 73
-0.0039493442 -0.017399989 -0.02843976 179 142 109
-0.0039145947 -0.017501682 -0.030277312 173 146 118
-0.0031018257 -0.017733432 -0.03276509 177 153 130
-0.0038504601 -0.017704912 -0.033961296 160 151 130
0.0033586025 -0.016631864 0.028597593 157 153 145
0.0010067821 -0.016337968 0.028626084 166 156 151
0.00028508902 -0.016310461 0.027473092 162 151 144
-0.00043654442 -0.016282953 0.026319861 159 146 132
-0.0011581779 -0.016255446 0.025166869 140 129 106
-0.00025898218 -0.016493984 0.022817135 149 123 98
-0.00098246336 -0.016466402 0.021661043 165 128 95
-8.893013e-05 -0.016704731 0.019302487 165 126 94
-6.5565109e-06 -0.01681 0.017540693 158 117 85
0.00088047981 -0.017048076 0.015171647 152 112 77
0.00015228987 -0.01702033 0.014008164 128 84 48
-0.00057584047 -0.016992569 0.012844682 110 50 12
-0.0013039708 -0.016964823 0.011681199 125 49 20
-0.0020321608 -0.016937062 0.010517716 107 37 14
-0.0011561513 -0.017174698 0.0081307888 96 17 0
-0.001886189 -0.017146878 0.0069643259 114 27 2
-0.0026161671 -0.017119057 0.005797863 155 110 122
-0.0033462048 -0.017091222 0.0046314001 123 92 95
-0.0024796128 -0.017328545 0.0022296906 41 39 44
-0.0032114983 -0.01730065 0.0010602474 59 37 34
-0.00235039 -0.017537728 -0.0013502836 126 94 95
-0.0030841231 -0.017509758 -0.0025228262 127 96 94
-0.0038178563 -0.017481804 -0.0036951303 86 18 0
-0.003757894 -0.017586224 -0.0054926872 91 8 4
-0.0029070973 -0.017822914 -0.0079196692 95 31 0
-0.00047636032 -0.018324085 -0.011608481 95 37 28
0.00036519766 -0.018560432 -0.014050364 80 47 45
-0.00037688017 -0.018532135 -0.015236139 91 39 33
-0.0011190176 -0.018503852 -0.016421914 92 24 10
-0.0002849102 -0.018739931 -0.018875718 88 29 2
-0.0010288358 -0.018711574 -0.020064473 48 31 22
-0.0017728209 -0.018683217 -0.021253228 73 39 33
-0.0025168061 -0.018654846 -0.022441983 74 43 12
-0.0032607913 -0.018626489 -0.023630738 110 54 0
-0.00243783 -0.018862121 -0.026102245 188 127 73
-0.0031836629 -0.018833704 -0.02729398 169 126 94
-0.0031479001 -0.0189372 -0.029130101 197 160 128
-0.0023332834 -0.019172512 -0.031615019 186 159 131
-0.0030819178 -0.019143976 -0.032811224 194 170 146
-0.0038304925 -0.019115455 -0.03400743 183 174 153
0.0033778548 -0.017995082 0.028553009 157 153 149
0.002654314 -0.017967515 0.027396917 164 153 150
0.0019308329 -0.017939933 0.026240826 152 143 136
0.0012072921 -0.017912351 0.025084734 154 136 123
0.0004838109 -0.017884783 0.023928642 156 130 114
0.0013811588 -0.018126763 0.021575928 155 133 116
0.0006557703 -0.018099107 0.020416856 150 136 116
0.00073903799 -0.018206179 0.018656492 160 129 99
0.0016280413 -0.018447831 0.016290307 154 116 88
0.00089985132 -0.01842007 0.015126824 147 108 74
0.00017172098 -0.018392324 0.013963342 131 86 50
0.0010533333 -0.018633671 0.011585355 119 72 43
0.0003233552 -0.018605851 0.010418773 131 56 23
-0.00040668249 -0.01857803 0.0092523098 120 54 28
0.00046741962 -0.018819109 0.006862402 116 45 8
-0.00026446581 -0.018791214 0.0056929588 105 41 8
0.00060409307 -0.019032106 0.0032941103 99 75 65
-0.0001296401 -0.019004136 0.0021218061 103 68 76
-0.00086337328 -0.018976167 0.00094926357 77 25 0
-0.0015971065 -0.018948197 -0.00022315979 41 4 0
-0.0023308396 -0.018920228 -0.0013955832 86 44 12
-0.0030645728 -0.018892258 -0.0025680065 93 50 14
-0.0030037165 -0.018998466 -0.0043641329 96 33 11
-0.0021509528 -0.019238748 -0.0067881346 77 35 0
0.0002836585 -0.019747086 -0.010471344 94 29 0
0.0011270642 -0.019986995 -0.012910247 69 28 0
0.0003849864 -0.019958712 -0.014096022 96 34 0
0.0012228489 -0.020198427 -0.016543984 100 29 0
0.00047886372 -0.02017007 -0.017732739 103 31 0
-0.00026506186 -0.020141713 -0.018921494 95 33 0
-0.001009047 -0.020113356 -0.02011025 110 38 0
-0.0017530322 -0.020085 -0.021299005 109 40 0
-0.0024970174 -0.020056628 -0.02248776 132 76 0
-0.003240943 -0.020028271 -0.023676574 147 94 36
-0.002417922 -0.020267405 -0.0261482 189 125 79
-0.0023812652 -0.020372689 -0.027982831 180 143 110
-0.0031280518 -0.020344228 -0.029176056 190 160 126
-0.0023133755 -0.020583041 -0.031661153 189 161 138
-0.0015025139 -0.020821698 -0.034152091 194 171 152
0.0065687895 -0.019796133 0.027896047 124 123 119
0.0050272942 -0.019631736 0.027326465 160 157 153
0.0043019652 -0.019604094 0.026167512 163 152 149
0.0035765767 -0.019576438 0.025008321 145 136 129
0.0028511882 -0.019548796 0.023849368 153 134 122
0.0021258593 -0.01952114 0.022690296 160 133 117
0.0022109747 -0.01963003 0.020932794 155 133 116
0.0014846921 -0.019602343 0.019772291 149 135 114
0.0007584095 -0.019574657 0.018611789 161 130 101
0.0016474128 -0.019819811 0.016245484 153 115 87
0.00091928244 -0.01979205 0.015082002 147 108 74
0.00019109249 -0.019764304 0.013918519 141 96 60
0.001072824 -0.020009167 0.011540294 130 82 54
0.00034278631 -0.019981347 0.010373831 153 78 45
0.0012187958 -0.020226017 0.007986784 126 59 34
0.0020911098 -0.020470515 0.0055937767 118 46 10
0.0013573766 -0.020442545 0.0044213533 96 32 0
0.0014238954 -0.020550735 0.0026341677 49 25 15
0.00068920851 -0.020522736 0.0014601946 53 18 26
-4.5418739e-05 -0.020494737 0.00028634071 71 20 0
-0.00078010559 -0.020466737 -0.00088751316 55 18 0
-0.0015147924 -0.020438723 -0.0020614862 64 22 0
-0.0022494793 -0.020410724 -0.0032354593 70 28 0
-0.0029841065 -0.020382725 -0.0044093132 109 46 24
-0.00054383278 -0.02089829 -0.0080838203 91 49 13
0.0018889308 -0.021413542 -0.011770129 123 58 14
0.001146853 -0.02138526 -0.012956023 100 58 19
0.0019866228 -0.021628551 -0.015401006 136 74 29
0.0012426972 -0.021600194 -0.016589761 146 75 30
0.0020768642 -0.021843247 -0.019043684 166 94 44
0.0013310313 -0.021814816 -0.020235419 160 98 46
0.0005851984 -0.021786384 -0.021427155 198 126 70
-0.0017331839 -0.021486767 -0.021344781 217 148 89
-0.002477169 -0.021458395 -0.022533655 240 183 94
-0.0032211542 -0.021430038 -0.02372241 239 186 128
-0.0023980737 -0.021672674 -0.026194155 255 193 146
-0.0023614168 -0.021779731 -0.028028846 234 198 165
-0.0014824867 -0.022235744 -0.034198344 233 210 191
0.015402198 -0.022467054 0.024893165 164 170 146
0.010582507 -0.021746404 0.026659608 122 129 121
0.006588161 -0.021164611 0.027851224 135 128 129
0.0050466061 -0.020998456 0.02728188 168 148 147
0.0043212771 -0.020970814 0.026122689 167 149 143
0.0035958886 -0.020943157 0.024963737 159 133 123
0.0028705001 -0.020915516 0.023804665 153 132 115
0.0021451712 -0.020887859 0.022645593 154 135 117
0.0022303462 -0.020998508 0.02088809 153 133 116
0.0015040636 -0.020970821 0.019727588 151 134 116
0.00077772141 -0.020943135 0.018566966 152 126 107
0.0016667843 -0.021191821 0.016200662 154 115 82
0.00093865395 -0.02116406 0.015037179 144 113 77
0.0018222332 -0.021412499 0.012661815 138 98 47
0.0027020574 -0.02166082 0.010280609 116 87 46
0.0035781264 -0.021908984 0.0078934431 119 82 35
0.0036474466 -0.022019006 0.006110549 109 71 21
0.0029128194 -0.021991007 0.0049366951 102 55 0
0.0021781325 -0.021963008 0.0037628412 90 39 0
0.0014434457 -0.021934994 0.0025888681 100 34 0
0.00070875883 -0.021906994 0.0014150143 92 22 0
-2.5868416e-05 -0.021878995 0.00024104118 92 18 0
-0.00076055527 -0.021850996 -0.00093281269 101 32 0
-0.0014952421 -0.021822982 -0.0021067858 123 47 0
-0.0022298694 -0.021794982 -0.0032806396 122 55 0
-0.0029645562 -0.021766983 -0.0044546127 128 70 11
-0.00052416325 -0.022289552 -0.0081293583 147 80 43
0.0019087195 -0.022811823 -0.011815906 163 99 52
0.0011666417 -0.02278354 -0.01300168 164 109 70
0.0020064712 -0.023030333 -0.015446782 159 120 74
0.001262486 -0.023001976 -0.016635537 171 128 101
0.0020967722 -0.023248531 -0.01908958 183 136 100
0.0013509393 -0.0232201 -0.020281434 194 142 123
-0.0014625192 -0.023649789 -0.034244537 231 215 211
0.015421748 -0.023851298 0.024847984 130 136 112
0.010601938 -0.023121916 0.026614666 124 131 123
0.0082396269 -0.022813573 0.026627421 141 134 135
0.0058811903 -0.022505417 0.026646018 166 146 145
0.0051549077 -0.022477731 0.025485396 164 145 139
0.0044285655 -0.022450045 0.024324894 153 127 117
0.0037022829 -0.022422358 0.023164392 143 121 104
0.0029760003 -0.022394687 0.022003889 144 125 108
0.0022496581 -0.022367001 0.020843267 146 126 109
0.0015233755 -0.022339314 0.019682765 145 128 110
0.0024143457 -0.022591531 0.017319322 146 120 102
0.0033017397 -0.022843651 0.014949799 149 110 78
0.002571702 -0.022815831 0.013783336 130 99 63
0.0034533739 -0.023067698 0.011404991 142 103 52
0.0043314099 -0.023319453 0.0090206861 129 100 59
