ply
format ascii 1.0
comment PCL generated
element vertex 960
property float x
property float y
property float z
property uchar red
property uchar green
property uchar blue
element camera 0
property float view_px
property float view_py
property float view_pz
property float x_axisx
property float x_axisy
property float x_axisz
property float y_axisx
property float y_axisy
property float y_axisz
property float z_axisx
property float z_axisy
property float z_axisz
property float focal
property float scalex
property float scaley
property float centerx
property float centery
property int viewportx
property int viewporty
property float k1
property float k2
end_header
-0.00066792965 -0.031025626 0.004786849 144 184 227
-0.0014038086 -0.030997619 0.0036135912 89 159 214
-0.0029376745 -0.030884326 0.0030559301 91 141 215
-0.0052666664 -0.030685857 0.003117919 79 117 172
-0.0059997439 -0.030657962 0.0019491911 46 87 135
-0.01229912 -0.03003379 0.0051194429 130 116 159
-0.018585324 -0.029410124 0.0083101988 106 145 184
-0.020891964 -0.029212512 0.0084079504 55 132 179
-0.023194909 -0.02901502 0.0085116625 84 149 186
-0.025494099 -0.028817683 0.0086210966 72 110 174
-0.026999056 -0.028705485 0.0081094503 0 88 163
-0.029291809 -0.028508402 0.0082293749 0 65 163
-0.031580687 -0.028311454 0.0083552599 0 64 174
-0.033078253 -0.028199553 0.0078554153 119 180 248
-0.036934197 -0.027833134 0.0092581511 97 187 250
-0.03763932 -0.027806304 0.0081340075 54 187 239
-0.03991437 -0.02760987 0.0082820654 85 170 213
-0.040617645 -0.027583107 0.007160902 0 84 127
-0.042103887 -0.027471624 0.0066789389 0 55 86
-0.042806208 -0.027444899 0.0055590868 0 119 129
-0.043508589 -0.027418166 0.0044394732 60 124 132
-0.044210911 -0.027391441 0.0033197403 19 94 109
-0.044913232 -0.027364716 0.0022000074 11 81 109
-0.044837177 -0.02742254 0.0004338026 25 84 111
-0.040875614 -0.027902827 -0.0045757294 20 79 115
-0.037701666 -0.028298207 -0.0089534521 24 80 94
-0.036088288 -0.028524369 -0.012044072 29 92 80
-0.035255194 -0.028665923 -0.014491081 25 94 90
-0.03597337 -0.028638594 -0.015636086 25 86 86
-0.035145938 -0.028779924 -0.018091917 35 88 98
-0.035094082 -0.028836824 -0.019896865 59 70 86
-0.034273088 -0.028977901 -0.022363126 83 71 79
-0.034995914 -0.028950393 -0.023515463 115 95 93
-0.032642365 -0.029259637 -0.027313471 90 68 74
-0.032600701 -0.02931615 -0.02913475 37 40 51
-0.031793714 -0.029456697 -0.031623304 50 46 85
-0.029457808 -0.029765278 -0.035449564 46 76 128
0.10254174 -0.041720629 -0.010072827 157 169 135
0.10171741 -0.041689247 -0.011386991 82 132 117
0.098406851 -0.041393265 -0.011001945 30 124 134
0.095929682 -0.041185647 -0.01117599 126 157 186
0.093456268 -0.040978178 -0.011343956 110 151 151
0.092638433 -0.04094705 -0.012647748 179 146 124
0.080270469 -0.039682984 -0.0059384108 224 138 102
0.079465687 -0.039652348 -0.0072214603 188 115 49
0.070429444 -0.038741753 -0.002751112 219 200 182
0.067167282 -0.038447604 -0.0022888184 223 213 217
0.0663746 -0.038417429 -0.003552556 187 194 206
0.063941181 -0.038211487 -0.003656745 198 197 227
0.061511576 -0.03800568 -0.0037549734 223 177 207
0.059085667 -0.037800029 -0.0038472414 223 187 206
0.056663454 -0.037594505 -0.0039335489 237 204 214
0.055878222 -0.037564628 -0.0051854849 195 178 176
0.053461611 -0.037359312 -0.0052629709 0 0 0
0.049419165 -0.036978781 -0.0041569471 0 0 12
0.048639536 -0.036949113 -0.0053999424 27 28 60
0.046234071 -0.036744237 -0.005459547 0 28 78
0.04545629 -0.036714636 -0.0066994429 0 32 60
0.043056428 -0.036509968 -0.006750226 0 23 62
0.022837996 -0.034380421 0.0063198805 0 67 86
0.022084475 -0.034351751 0.0051184893 25 104 114
0.021330893 -0.034323074 0.003917098 55 166 175
0.020577312 -0.034294397 0.0027157068 76 170 182
0.018211007 -0.034091003 0.0027185678 33 163 190
0.017459333 -0.0340624 0.0015200377 40 138 186
0.015098631 -0.033859216 0.0015317202 0 111 161
0.011938035 -0.033568919 0.0021559 18 94 159
0.0079803467 -0.033191621 0.0033969879 91 101 186
0.0056335926 -0.032988973 0.0034309626 48 122 178
0.0016889572 -0.032612167 0.0046927929 124 184 229
-0.00064843893 -0.032409877 0.0047415495 116 156 199
-0.0021832585 -0.032294802 0.0041823387 25 95 150
-0.0029181838 -0.032266833 0.0030106306 69 119 193
-0.0052472353 -0.032064863 0.0030728579 89 128 183
-0.0075725913 -0.031863034 0.0031409264 47 88 136
-0.011484563 -0.031487465 0.0044547319 72 58 101
-0.014594853 -0.031199083 0.0051590204 57 96 136
-0.020872891 -0.030563474 0.0083637238 54 131 178
-0.023175895 -0.030362487 0.008467555 25 89 127
-0.025475144 -0.030161649 0.0085772276 28 65 130
-0.028561234 -0.029874183 0.0093201399 0 70 145
-0.029272914 -0.0298471 0.0081855059 0 60 159
-0.031561852 -0.02964665 0.0083116293 0 73 183
-0.034634888 -0.029359691 0.009075284 123 185 252
-0.036915481 -0.029159561 0.0092147589 97 187 250
-0.037620604 -0.029132731 0.0080906153 49 181 233
-0.039895713 -0.028932802 0.0082389116 81 167 210
-0.040598989 -0.02890604 0.0071176291 0 84 127
-0.04208529 -0.028792806 0.0066356659 0 69 100
-0.042787611 -0.028766081 0.005515933 1 123 133
-0.043489933 -0.028739348 0.0043962002 63 126 134
-0.044192255 -0.028712623 0.0032764673 21 96 111
-0.044115305 -0.028772235 0.001511693 14 85 112
-0.044818521 -0.028745472 0.00039052963 41 100 127
-0.042411745 -0.029063746 -0.0033230782 22 81 117
-0.037682712 -0.029640414 -0.0089973211 3 59 73
-0.036069274 -0.029871836 -0.01208818 8 72 59
-0.036785603 -0.029844582 -0.013230085 38 108 104
-0.035954297 -0.029989555 -0.015680194 48 110 109
-0.035126805 -0.030134387 -0.018136144 30 84 93
-0.035074949 -0.030193031 -0.019941211 58 68 85
-0.034253895 -0.030337624 -0.022407591 81 69 78
-0.033436596 -0.030482069 -0.024879932 100 80 78
-0.032623112 -0.030626372 -0.027358174 81 59 64
-0.032581389 -0.030684642 -0.029179513 42 45 56
-0.031774402 -0.030828692 -0.031668186 101 97 137
-0.029438376 -0.031144284 -0.035494685 86 116 168
0.10007179 -0.043001242 -0.0084329844 177 148 105
0.099250197 -0.042969979 -0.0097427368 101 133 105
0.098428667 -0.042938717 -0.011052489 108 133 134
0.091812253 -0.042277962 -0.0083864927 124 154 172
0.089343488 -0.04206717 -0.0085469484 135 120 118
0.085226417 -0.041676804 -0.0075596571 163 127 98
0.080291808 -0.041196898 -0.0059880018 207 129 77
0.079487026 -0.041166276 -0.0072710514 161 119 1
0.070450544 -0.040238149 -0.002800107 216 201 178
0.067188323 -0.039938733 -0.002337575 212 208 208
0.06639564 -0.039908573 -0.0036014318 190 195 206
0.062321484 -0.039519846 -0.0025457144 207 218 244
0.059893608 -0.039310604 -0.0026408434 176 216 244
0.057469487 -0.039101504 -0.0027300119 205 220 242
0.055049121 -0.038892552 -0.0028133392 197 199 219
0.054265797 -0.038862735 -0.004062295 139 180 194
0.051850915 -0.038654007 -0.0041365623 0 0 55
0.049439847 -0.038445383 -0.0042049885 0 0 85
0.047032475 -0.038236938 -0.0042673349 71 44 124
0.046254694 -0.038207345 -0.00550735 62 70 135
0.043852925 -0.037999101 -0.0055609941 3 3 62
0.043077052 -0.037969574 -0.0067980289 0 1 0
0.039060652 -0.037583031 -0.0056502819 34 32 17
0.021350861 -0.035740621 0.0038707256 104 72 72
0.020597339 -0.035711944 0.0026693344 77 108 125
0.018230915 -0.035505041 0.0026723146 51 103 117
0.017479241 -0.035476439 0.0014737844 17 116 113
0.01511848 -0.035269752 0.0014855862 0 97 140
0.011957824 -0.03497421 0.0021098852 0 76 152
0.0080000162 -0.034589894 0.0033512115 111 124 181
0.0056532621 -0.034383744 0.0033853054 128 133 185
0.0017085671 -0.033999927 0.0046473742 147 178 228
-0.00062888861 -0.033794135 0.00469625 104 134 207
-0.0021637678 -0.033677302 0.0041371584 0 81 172
-0.0028986931 -0.033649333 0.0029654503 76 121 198
-0.0052278042 -0.033443853 0.0030276775 117 128 202
-0.0091454983 -0.033061065 0.0043329 8 111 195
-0.011465251 -0.032855943 0.0044099092 0 76 173
-0.012987077 -0.032739609 0.0038716793 0 77 175
-0.019267201 -0.032091662 0.00707376 40 85 169
-0.023156881 -0.031709932 0.0084234476 0 66 162
-0.02545625 -0.031505592 0.0085332394 0 72 146
-0.028542399 -0.031212881 0.0092762709 0 51 131
-0.029254019 -0.031185798 0.0081417561 0 60 162
-0.031543016 -0.030981846 0.0082678795 0 74 192
-0.034616172 -0.030689627 0.0090318918 127 187 246
-0.036896765 -0.030486003 0.0091713667 126 214 245
-0.037601888 -0.030459166 0.0080472231 0 209 242
-0.039877057 -0.030255727 0.0081955194 46 166 208
-0.040580332 -0.030228965 0.0070743561 0 82 125
-0.041283607 -0.030202202 0.0059531927 0 74 95
-0.042768955 -0.030087255 0.0054727793 5 124 129
-0.043471336 -0.030060522 0.0043530464 69 129 133
-0.044173658 -0.030033797 0.0032333136 43 84 103
-0.044096649 -0.03009516 0.00146842 16 72 102
-0.043242872 -0.030244499 -0.00094616413 18 81 111
-0.042392969 -0.030393682 -0.0033665895 17 78 113
-0.037663817 -0.030982614 -0.0090413094 28 63 80
-0.03605026 -0.031219281 -0.012132287 3 68 57
-0.036766589 -0.031192027 -0.013274193 0 107 94
-0.035935283 -0.031340525 -0.015724421 45 118 110
-0.035107732 -0.031488858 -0.01818049 23 97 94
-0.035055816 -0.03154926 -0.019985557 46 87 99
-0.034234762 -0.031697355 -0.022452116 71 81 86
-0.033417404 -0.031845301 -0.024924517 78 77 80
-0.031834602 -0.032080799 -0.028064489 87 57 64
-0.031025708 -0.032228425 -0.030550301 38 51 53
-0.030220449 -0.032375932 -0.033042073 56 142 164
-0.029418945 -0.032523274 -0.035539746 120 143 183
0.10009354 -0.044546708 -0.0084835291 188 160 117
0.099272013 -0.044515446 -0.0097932816 131 163 135
0.096792877 -0.04430075 -0.0099699497 158 183 184
0.090178192 -0.043627799 -0.0073006153 151 181 199
0.087711215 -0.043413565 -0.0074579716 120 105 103
0.085247874 -0.04319948 -0.0076094866 167 131 103
0.078663051 -0.042527676 -0.0048924685 238 160 109
0.077860117 -0.042497113 -0.0061725378 191 149 31
0.073764384 -0.042100564 -0.005150795 217 202 179
0.069676161 -0.041704275 -0.0041172504 208 203 204
0.066416681 -0.041399717 -0.0036501884 193 199 209
0.062342405 -0.041003972 -0.0025942326 209 221 246
0.05991447 -0.040791228 -0.0026893616 181 222 250
0.057490289 -0.040578634 -0.0027784109 200 215 238
0.055069923 -0.040366173 -0.0028614998 189 191 211
0.052653134 -0.040153846 -0.0029387474 142 183 197
0.050240159 -0.039941683 -0.0030099154 142 129 202
0.04783088 -0.03972964 -0.003075242 127 129 231
0.045425355 -0.039517753 -0.0031347275 171 144 224
0.043023527 -0.039306 -0.0031881332 140 148 213
0.042249501 -0.039276548 -0.0044221878 9 9 68
0.041475415 -0.039247088 -0.0056562424 7 20 9
0.021370888 -0.037158176 0.0038243532 47 15 15
0.019110203 -0.037072144 0.00022017956 0 1 0
0.015138388 -0.036680296 0.0014394522 0 112 155
0.010370374 -0.036197975 0.0032771826 65 155 232
0.0080197453 -0.035988167 0.0033055544 177 189 246
0.0056729317 -0.035778508 0.0033396482 185 190 242
0.0033298135 -0.035568997 0.0033797026 167 198 248
-0.00060939789 -0.035178401 0.0046509504 104 134 207
-0.0021442771 -0.03505981 0.0040918589 0 83 175
-0.0028792024 -0.03503184 0.00292027 81 125 202
-0.0068025589 -0.034641832 0.004216671 121 133 206
-0.0091261864 -0.034433059 0.0042879581 36 139 223
-0.012241304 -0.034133993 0.0049852133 24 119 216
-0.014556408 -0.033925541 0.0050698519 24 119 217
-0.016867876 -0.03371723 0.0051604509 52 96 180
-0.019968092 -0.033418722 0.0058814287 4 88 184
-0.023854196 -0.033030137 0.0072373152 18 98 171
-0.028523505 -0.032551579 0.0092325211 14 83 163
-0.029235125 -0.032524496 0.0080980062 4 65 167
-0.032312989 -0.032226846 0.0088546276 0 74 192
-0.034597397 -0.032019563 0.0089882612 124 184 242
-0.036878109 -0.031812429 0.0091279745 126 214 245
-0.039155185 -0.031605415 0.0092734098 0 218 250
-0.039858401 -0.031578653 0.0081522465 55 175 217
-0.040561676 -0.03155189 0.0070310831 0 83 127
-0.042048037 -0.031435154 0.0065492392 0 74 95
-0.042750359 -0.031408429 0.0054295063 10 128 134
-0.04345268 -0.031381696 0.0043097734 60 120 124
-0.044155002 -0.031354971 0.0031901598 24 66 84
-0.044077992 -0.031418085 0.0014251471 16 72 102
-0.043224156 -0.031570926 -0.00098955631 18 81 111
-0.042374253 -0.031723619 -0.0034101009 19 80 116
-0.037644863 -0.032324813 -0.0090851784 34 69 86
-0.036031306 -0.032566741 -0.012176275 7 72 62
-0.036747575 -0.032539487 -0.0133183 0 101 88
-0.035916209 -0.032691486 -0.015768647 25 98 91
-0.034315705 -0.032932915 -0.018880486 24 98 95
-0.033492744 -0.033084586 -0.021344185 45 86 98
-0.032673478 -0.033236101 -0.023813784 71 81 86
-0.031858027 -0.03338749 -0.026289284 79 78 81
-0.03181529 -0.033449292 -0.028109252 100 70 77
-0.031006336 -0.03360042 -0.030595183 66 79 81
-0.030201077 -0.033751421 -0.033087075 66 152 175
-0.029399514 -0.033902273 -0.035584867 118 141 181
0.099293828 -0.046060897 -0.0098438263 143 170 138
0.096814632 -0.045842707 -0.010020375 34 188 183
0.090199769 -0.045157492 -0.007350564 155 196 203
0.087732732 -0.044939756 -0.0075079203 114 171 178
0.085269332 -0.044722155 -0.0076593161 182 180 185
0.07868433 -0.044038087 -0.0049419403 202 185 156
0.076233089 -0.043820962 -0.005073905 174 139 62
0.073785603 -0.043603972 -0.0052000284 225 197 158
0.069697261 -0.043200679 -0.0041662455 225 198 164
0.066437662 -0.042890862 -0.003698945 234 223 216
0.062363327 -0.042488098 -0.0026427507 247 242 245
0.059935391 -0.042271852 -0.0027377605 216 227 235
0.057511151 -0.042055748 -0.0028266907 210 214 229
0.055090666 -0.041839778 -0.0029097795 185 189 212
0.052673876 -0.041623957 -0.0029867887 162 180 200
0.050260842 -0.041408285 -0.0030579567 133 178 226
0.047851503 -0.041192755 -0.0031231642 160 170 248
0.045445919 -0.040977359 -0.0031824112 162 174 238
0.043044031 -0.040762097 -0.0032356977 160 163 195
0.042270005 -0.040732644 -0.0044697523 0 32 95
0.039873779 -0.040517606 -0.0045142174 23 44 84
0.039101601 -0.040488221 -0.0057452917 52 73 97
0.021390855 -0.038575716 0.0037779808 43 39 51
0.019883752 -0.038518362 0.0013751984 1 22 0
0.015158296 -0.038090825 0.0013933182 34 170 178
0.010390103 -0.03759975 0.0032314062 180 174 205
0.0080394745 -0.037386447 0.003259778 179 178 221
0.007296145 -0.037358157 0.0020747185 190 174 220
0.0033494234 -0.036960259 0.0033342838 150 166 232
-0.00058984756 -0.036562651 0.0046056509 107 126 211
-0.0021247864 -0.036442302 0.0040466785 18 118 206
-0.0044558048 -0.036229752 0.004106164 79 127 215
-0.0083774924 -0.035832807 0.0054059029 79 126 217
-0.010699213 -0.0356206 0.0054802895 91 133 218
-0.012221992 -0.035500728 0.0049405098 43 117 210
-0.014537215 -0.035288773 0.0050252676 71 118 208
-0.016848743 -0.035076946 0.0051159859 46 97 189
-0.019156516 -0.034865275 0.0052126646 67 89 177
-0.020669043 -0.034745798 0.0046893358 97 98 164
-0.026923358 -0.034074299 0.0079337358 75 93 136
-0.02921629 -0.033863194 0.0080541372 55 76 161
-0.032294214 -0.033560283 0.008810997 0 76 195
-0.034578681 -0.033349499 0.008944869 101 180 242
-0.036859393 -0.033138856 0.0090845823 128 212 248
-0.039136529 -0.032928348 0.0092302561 50 210 243
-0.039839745 -0.032901585 0.0081089735 76 178 214
-0.04054302 -0.032874823 0.0069878101 0 83 125
-0.042029381 -0.032756329 0.0065059662 0 73 97
-0.042731702 -0.032729603 0.0053862333 38 112 127
-0.043434083 -0.032702871 0.0042666197 69 115 126
-0.044136405 -0.032676145 0.0031468868 37 85 100
-0.044059336 -0.032741018 0.0013818741 26 88 105
-0.0432055 -0.032897361 -0.0010329485 15 92 114
-0.040022731 -0.033328101 -0.0053985119 39 80 112
-0.037625968 -0.03366702 -0.0091291666 42 67 86
-0.037563741 -0.033731319 -0.010917902 5 85 84
-0.036728561 -0.033886954 -0.013362288 18 95 90
-0.035897195 -0.034042448 -0.015812755 0 76 61
-0.034296632 -0.034289129 -0.018924832 49 83 82
-0.033473551 -0.034444302 -0.02138865 65 85 84
-0.032654226 -0.034599334 -0.023858368 90 79 90
-0.031838715 -0.034754224 -0.026333988 88 78 86
-0.031796038 -0.03481777 -0.028154016 100 76 82
-0.030987024 -0.034972414 -0.030640066 83 86 92
-0.030181646 -0.035126917 -0.033132076 103 133 151
-0.029380023 -0.035281271 -0.035629988 118 129 157
0.10180485 -0.047892123 -0.011589885 135 161 130
0.096836388 -0.04738465 -0.01007092 0 152 147
0.096016645 -0.047353461 -0.011377692 127 168 175
0.08775425 -0.046465948 -0.0075577497 118 174 181
0.081160665 -0.045769289 -0.004853487 189 187 192
0.078705609 -0.045548499 -0.004991293 220 202 173
0.076254368 -0.045327857 -0.0051232576 195 160 83
0.073806763 -0.04510738 -0.0052491426 216 188 149
0.071362972 -0.044887006 -0.0053693056 215 188 153
0.068922877 -0.044666797 -0.0054832697 239 228 221
0.064025104 -0.044162042 -0.0038514137 250 244 247
0.059956253 -0.043752491 -0.0027861595 215 226 233
0.057531953 -0.043532878 -0.0028749704 198 202 217
0.056746721 -0.043502994 -0.0041269064 191 195 217
0.054328084 -0.043283597 -0.0042067766 172 191 210
0.050281525 -0.042874902 -0.003105998 157 203 250
0.047872186 -0.042655855 -0.0031709671 173 183 255
0.045466483 -0.042436957 -0.0032302141 160 172 236
0.043064594 -0.042218186 -0.0032833815 164 167 198
0.040666461 -0.041999578 -0.0033305883 0 32 95
0.039894283 -0.041970193 -0.0045617819 43 64 104
0.039122045 -0.041940808 -0.0057928562 68 90 113
0.038349867 -0.041911423 -0.0070239305 84 83 113
0.034344316 -0.041504279 -0.0058575869 55 51 63
0.011155069 -0.039029881 0.0043735504 59 195 202
0.0071951747 -0.03862448 0.0056124926 176 171 201
0.0064537525 -0.038596265 0.0044304132 122 121 164
0.0057122707 -0.03856805 0.0032483339 130 115 161
0.0049708486 -0.038539834 0.0020662546 73 89 155
0.0010294914 -0.038135141 0.0033351183 85 103 189
-0.0021052957 -0.037824817 0.0040014982 31 130 219
-0.0044363737 -0.03760875 0.0040611029 77 125 213
-0.0083581209 -0.037204802 0.005360961 58 105 196
-0.010679901 -0.036989093 0.0054354668 60 102 186
-0.01220274 -0.036867455 0.0048958063 31 104 197
-0.014517963 -0.036651999 0.0049806833 61 108 198
-0.01682955 -0.036436677 0.0050715208 43 94 186
-0.019137383 -0.036221497 0.0051683187 75 98 185
-0.02064991 -0.036100261 0.00464499 128 128 194
-0.024532497 -0.035697803 0.0060073137 102 120 162
-0.029197395 -0.035201885 0.0080103874 78 99 185
-0.031486571 -0.034987427 0.0081368685 13 93 213
-0.034559906 -0.034679443 0.0089012384 80 159 222
-0.036840677 -0.034465283 0.0090411901 118 201 238
-0.0375458 -0.034438454 0.0079170465 53 212 245
-0.039821088 -0.034224503 0.0080657005 80 181 217
-0.040524364 -0.03419774 0.0069445372 0 85 126
-0.042010784 -0.03407751 0.0064626932 0 74 98
-0.042713106 -0.034050785 0.0053430796 39 113 129
-0.043415427 -0.034024052 0.0042233467 71 117 128
-0.044117749 -0.033997327 0.0031036139 42 89 104
-0.04404068 -0.034063935 0.0013386011 23 86 103
-0.044743896 -0.034037173 0.00021731853 22 99 121
-0.038448751 -0.03484983 -0.0067387819 41 82 114
-0.037607014 -0.03500922 -0.0091730356 39 65 83
-0.037544787 -0.035075262 -0.01096189 2 82 80
-0.036709607 -0.035234414 -0.013406396 35 112 106
-0.035878122 -0.035393409 -0.015856981 40 115 101
-0.034277499 -0.035645351 -0.018969178 70 104 103
-0.033454418 -0.035804033 -0.021433234 85 106 105
-0.032635033 -0.035962559 -0.023902953 125 114 125
-0.031049252 -0.036213949 -0.027038932 125 115 124
-0.03023833 -0.036372162 -0.029522181 131 106 112
-0.030967653 -0.036344409 -0.030684948 100 102 108
-0.030162275 -0.036502413 -0.033177078 86 117 135
-0.029360592 -0.036660269 -0.035675108 101 112 140
0.096858084 -0.048926607 -0.010121346 97 145 146
0.096038401 -0.048895419 -0.011428118 112 147 164
0.081986785 -0.047313839 -0.0036199093 128 138 148
0.081182003 -0.047283202 -0.0049029589 185 147 139
0.078726947 -0.04705891 -0.0050407648 220 143 122
0.076275587 -0.046834782 -0.0051726103 197 130 93
0.073827982 -0.04661078 -0.0052983761 235 192 156
0.071384132 -0.046386912 -0.0054183006 234 194 146
0.068943977 -0.046163201 -0.0055322647 245 228 219
0.064046085 -0.04564967 -0.0039000511 251 245 248
0.059977114 -0.045233116 -0.0028346777 211 223 230
0.059190035 -0.045203164 -0.0040894747 177 175 182
0.056767583 -0.044980116 -0.0041751862 207 169 189
0.054348886 -0.044757217 -0.0042550564 207 161 182
0.051933825 -0.044534452 -0.0043288469 220 180 237
0.047892809 -0.044118956 -0.0032188892 234 176 255
0.043859184 -0.04370375 -0.0020970106 210 168 243
0.043085098 -0.04367429 -0.0033310652 191 171 222
0.040686905 -0.043452173 -0.0033781528 0 44 109
0.039914727 -0.043422788 -0.0046092272 84 73 105
0.037522078 -0.043200865 -0.0046474934 110 83 115
0.036751747 -0.043171555 -0.0058755875 95 79 104
0.011174858 -0.040431663 0.0043276548 143 186 207
0.0072148442 -0.040019244 0.0055669546 102 185 210
0.0064733624 -0.039991029 0.0043848753 65 134 187
0.0057319403 -0.039962813 0.003202796 0 112 189
0.0033886433 -0.03974279 0.0032432079 7 94 178
0.0010491014 -0.039522894 0.0032895803 10 102 185
-0.0020858049 -0.039207317 0.0039561987 50 108 192
-0.0044169426 -0.038987748 0.0040160418 46 108 194
-0.008338809 -0.038576782 0.0053161383 39 94 187
-0.010660589 -0.038357571 0.0053907633 16 81 186
-0.012183487 -0.038234189 0.0048511028 60 89 184
-0.01449877 -0.038015224 0.0049360991 57 104 187
-0.016810358 -0.0377964 0.0050270557 39 86 170
-0.019118249 -0.037577711 0.0051239729 86 91 163
-0.019839227 -0.037550278 0.0039745569 162 133 179
-0.022932172 -0.037236303 0.0047079325 113 127 152
-0.026809275 -0.036827043 0.0060793161 25 111 166
-0.031467736 -0.036322616 0.0080932379 16 105 184
-0.03454113 -0.036009371 0.0088578463 108 158 225
-0.036821961 -0.035791725 0.008997798 111 167 229
-0.037527084 -0.035764888 0.0078736544 96 170 233
-0.039802432 -0.035547435 0.0080224276 132 170 227
-0.040505707 -0.035520673 0.0069012642 14 74 133
-0.041992128 -0.035398684 0.0064195395 0 59 94
-0.042694449 -0.035371959 0.0052998066 35 105 128
-0.043396771 -0.035345227 0.0041800737 80 109 129
-0.044099092 -0.035318501 0.0030604601 71 60 85
-0.044022024 -0.035386868 0.0012953281 21 61 71
-0.044725239 -0.035360105 0.00017416477 47 74 94
-0.038429856 -0.036188528 -0.0067826509 55 74 98
-0.03758812 -0.036351427 -0.0092169046 63 55 79
-0.037525833 -0.036419228 -0.011005878 48 59 69
-0.036690593 -0.036581866 -0.013450503 19 106 112
-0.035859048 -0.036744371 -0.015901208 61 121 113
-0.034258366 -0.037001565 -0.019013524 0 102 107
-0.033435225 -0.037163757 -0.02147758 86 85 81
-0.034158051 -0.037136249 -0.022630036 114 115 124
-0.03180021 -0.037487686 -0.026423454 129 121 125
-0.031757414 -0.037554741 -0.028243542 83 105 108
-0.030948341 -0.037716389 -0.03072983 82 91 90
-0.030142903 -0.037877902 -0.033222079 76 80 102
-0.030874074 -0.037850074 -0.034387827 79 75 114
0.096060157 -0.050437361 -0.011478543 119 154 171
0.082008123 -0.048827752 -0.0036695004 100 110 120
0.081203341 -0.048797116 -0.0049525499 168 129 122
0.078748226 -0.048569322 -0.0050901175 206 129 108
0.076296806 -0.048341691 -0.0052218437 201 134 97
0.073849142 -0.048114188 -0.0053476095 236 193 157
0.073049963 -0.048083775 -0.0066217184 239 198 150
0.068965077 -0.047659598 -0.0055812597 233 216 207
0.064067066 -0.047137305 -0.0039488077 242 236 239
0.059997976 -0.04671374 -0.0028830767 221 232 239
0.059210896 -0.046683788 -0.0041378736 185 183 190
0.056788385 -0.046457231 -0.0042234659 195 156 176
0.056003153 -0.046427354 -0.0054754019 184 139 160
0.053586304 -0.04620102 -0.0055521727 185 145 202
0.047913432 -0.045582063 -0.0032666922 200 142 233
0.043879688 -0.045159847 -0.0021445751 174 132 207
0.043105662 -0.045130387 -0.0033786297 165 146 197
0.040707409 -0.044904768 -0.0034257174 0 11 76
0.039935231 -0.044875383 -0.0046567917 13 2 34
0.037542522 -0.044649959 -0.0046949387 65 39 70
0.036772192 -0.044620648 -0.0059230328 54 38 64
0.034385085 -0.044395439 -0.005952239 34 28 45
0.011194587 -0.041833438 0.0042818785 147 190 210
0.0072345138 -0.041414015 0.0055212975 111 194 219
0.006493032 -0.0413858 0.0043392181 119 188 240
0.0057516098 -0.041357584 0.0031571388 47 176 253
0.0034082532 -0.041134052 0.00319767 47 135 219
0.0010686517 -0.040910654 0.0032442808 11 103 186
-0.0020663142 -0.040589817 0.0039110184 21 79 163
-0.0059937835 -0.040171638 0.0052024126 24 86 172
-0.0083194375 -0.039948776 0.0052711964 36 91 185
-0.010641277 -0.039726056 0.0053459406 20 84 190
-0.011368752 -0.03969837 0.0041861534 52 81 176
-0.014479518 -0.039378457 0.0048915148 38 85 169
-0.016791224 -0.039156131 0.0049825907 30 77 161
-0.01751405 -0.039128631 0.0038301945 77 83 155
-0.019820094 -0.038906507 0.0039302111 166 137 182
-0.021331787 -0.038781799 0.003408432 127 141 166
-0.027580082 -0.038073748 0.0066645145 87 173 227
-0.031448901 -0.037657805 0.0080494881 78 167 246
-0.034522414 -0.037339307 0.0088142157 118 168 235
-0.036803305 -0.037118152 0.0089544058 100 157 218
-0.037508428 -0.037091322 0.0078302622 52 126 189
-0.039783776 -0.036870368 0.0079791546 100 137 195
-0.040487051 -0.036843605 0.0068579912 13 73 132
-0.041973531 -0.036719859 0.0063763857 0 61 96
-0.042675853 -0.036693133 0.0052566528 26 95 118
-0.043378174 -0.036666401 0.00413692 70 100 120
-0.043300092 -0.036736563 0.0023732185 61 51 75
-0.044003367 -0.0367098 0.0012520552 13 53 62
-0.043149352 -0.036876656 -0.001163125 44 71 92
-0.039966285 -0.037333682 -0.0055295229 51 71 95
-0.037569165 -0.03769362 -0.0092607737 63 55 79
-0.037506878 -0.037763171 -0.011049867 54 65 74
-0.036671579 -0.037929319 -0.013494611 4 91 97
-0.035840034 -0.038095333 -0.015945315 31 90 83
-0.035012245 -0.038261198 -0.0184021 0 81 86
-0.033416033 -0.038523488 -0.021522164 81 80 76
-0.034138858 -0.03849598 -0.022674501 80 81 90
-0.031780899 -0.03885442 -0.026468158 88 80 83
-0.031738102 -0.038923226 -0.028288305 50 71 75
-0.030928969 -0.039088383 -0.030774713 41 50 49
-0.030123472 -0.039253399 -0.033267081 31 35 57
-0.030854702 -0.039225571 -0.034432828 61 56 96
0.080375373 -0.050140858 -0.0025793314 148 142 159
0.079572439 -0.050110295 -0.0038594007 172 157 168
0.078769505 -0.050079748 -0.0051395893 195 156 157
0.076318085 -0.049848586 -0.0052710772 190 158 166
0.075516999 -0.049818113 -0.0065482855 211 228 223
0.073071182 -0.049587175 -0.0066708326 238 226 228
0.07062912 -0.049356371 -0.0067876577 224 213 213
0.065729082 -0.048825249 -0.0051578283 244 219 232
0.061658084 -0.048394606 -0.0040948391 243 226 231
0.060869157 -0.048364595 -0.0053526163 217 200 191
0.058444679 -0.048134461 -0.0054411888 153 120 143
0.056024015 -0.047904484 -0.0055238008 0 34 123
0.055238783 -0.0478746 -0.0067756176 140 93 203
0.051193774 -0.047444947 -0.0056710243 87 96 229
0.045528233 -0.04681576 -0.0033735037 86 101 224
0.043126166 -0.046586476 -0.0034263134 97 107 205
0.040727913 -0.046357356 -0.0034731627 0 2 112
0.039955676 -0.046327971 -0.0047043562 0 4 9
0.037562966 -0.046099037 -0.0047422647 51 44 50
0.035173893 -0.045870267 -0.004774332 53 48 49
0.03440547 -0.045841023 -0.0059994459 45 40 57
0.011214375 -0.04323522 0.0042359829 107 146 178
0.008861661 -0.043007821 0.0042618513 138 141 173
0.0081183314 -0.042979531 0.0030767918 156 162 198
0.0057712793 -0.042752363 0.0031114817 160 188 227
0.0034278631 -0.042525321 0.0031522512 110 166 216
0.001088202 -0.042298414 0.0031988621 37 132 201
-0.0020468235 -0.041972324 0.0038657188 0 97 181
-0.005974412 -0.041547135 0.0051573515 0 86 176
-0.0083001256 -0.041320771 0.0052263737 15 92 187
-0.010622025 -0.041094542 0.0053011179 35 98 195
-0.011349499 -0.041066855 0.0041413307 47 100 187
-0.014460325 -0.040741682 0.0048469305 25 96 176
-0.016772032 -0.040515848 0.0049380064 0 91 149
-0.019080043 -0.040290147 0.0050352812 64 87 120
-0.02059263 -0.040163659 0.0045119524 147 130 160
-0.021312654 -0.040136263 0.0033640862 167 130 159
-0.027561188 -0.039415956 0.0066206455 166 167 205
-0.031430066 -0.038993008 0.0080058575 185 187 235
-0.032927811 -0.038867079 0.0075064898 110 172 232
-0.035210609 -0.038642347 0.0076435804 100 146 232
-0.037489712 -0.038417749 0.00778687 49 107 204
-0.039765179 -0.038193293 0.0079358816 82 114 209
-0.040468395 -0.03816653 0.0068147182 46 55 143
-0.04117167 -0.038139768 0.0056935549 31 59 98
-0.042657197 -0.038014308 0.0052133799 70 97 126
-0.043359518 -0.037987575 0.0040937662 86 102 129
-0.043281436 -0.038059488 0.0023299456 32 52 88
-0.043984711 -0.038032725 0.001208663 15 36 83
-0.043130696 -0.038203083 -0.0012065172 39 63 98
-0.03994745 -0.038668886 -0.0055731535 52 72 100
-0.039103746 -0.038838841 -0.0080047846 52 71 89
-0.037487924 -0.039107136 -0.011093736 43 82 94
-0.036652565 -0.039276786 -0.013538718 37 89 92
-0.035820961 -0.039446302 -0.015989661 6 70 74
-0.034993112 -0.039615661 -0.018446326 9 74 77
-0.0333969 -0.039883204 -0.021566629 73 83 81
-0.032577395 -0.040052243 -0.024036765 110 86 90
-0.030991375 -0.040319398 -0.027173281 108 79 84
-0.030180275 -0.040488131 -0.029656827 104 59 58
-0.030909598 -0.040460378 -0.030819595 60 36 27
-0.030104101 -0.040628895 -0.033312082 26 33 66
-0.03083533 -0.040601067 -0.03447783 56 56 118
0.080396652 -0.051651269 -0.0026288033 156 150 167
0.079593718 -0.051620722 -0.0039088726 185 169 181
0.078790843 -0.05159016 -0.005188942 210 171 173
0.076339304 -0.051355496 -0.0053204298 214 182 189
0.075538278 -0.051325023 -0.0065975189 244 255 255
0.073092341 -0.051090591 -0.0067200661 255 249 251
0.072293162 -0.051060177 -0.0079942942 213 201 201
0.068211794 -0.05062212 -0.0069473982 197 173 186
0.063318193 -0.050082475 -0.0053068399 192 175 180
0.060890079 -0.04984872 -0.0054012537 202 184 176
0.0584656 -0.049615085 -0.005489707 153 120 143
0.056044817 -0.049381606 -0.0055720806 0 38 128
0.055259585 -0.049351722 -0.0068238974 179 133 243
0.051214516 -0.048915058 -0.0057190657 120 130 255
0.047176898 -0.048478678 -0.0046024323 107 122 245
0.043146729 -0.048042573 -0.0034738779 99 109 208
0.040748358 -0.047809944 -0.0035207272 3 14 124
0.03997618 -0.047780558 -0.0047518015 4 11 16
0.037583351 -0.04754813 -0.00478971 54 48 53
0.035194278 -0.047315851 -0.0048216581 66 61 62
0.034425855 -0.047286607 -0.006046772 119 113 130
0.00962466 -0.044434369 0.0054011345 29 68 100
0.0088813901 -0.044406086 0.0042160749 39 42 74
0.0081380606 -0.044377796 0.0030310154 96 102 137
0.007394731 -0.044349506 0.0018459558 114 142 181
0.0050495267 -0.044118904 0.0018838644 119 175 225
0.0043080449 -0.044090688 0.00070178509 78 173 242
-0.0012281537 -0.043455921 0.0032061338 49 148 232
-0.0059550405 -0.042922631 0.0051124096 31 135 225
-0.0082807541 -0.042692751 0.0051814318 21 98 193
-0.010602713 -0.042463027 0.0052564144 41 104 201
-0.011330187 -0.042435341 0.0040966272 86 138 225
-0.014441073 -0.042104915 0.0048023462 68 139 219
-0.016752839 -0.041875571 0.0048936605 39 142 201
-0.01906091 -0.041646376 0.0049908161 102 126 158
-0.020573556 -0.041518129 0.0044677258 139 122 152
-0.021293581 -0.041490734 0.0033198595 159 122 151
-0.026752472 -0.040858902 0.0059474707 130 131 169
-0.031411231 -0.040328197 0.0079621077 147 149 197
-0.032909036 -0.040200517 0.0074628592 94 155 216
-0.035191894 -0.039972283 0.0076001883 92 138 224
-0.037470996 -0.039744183 0.0077434778 22 80 178
-0.039746523 -0.039516218 0.0078926086 43 74 169
-0.040449739 -0.039489456 0.0067714453 38 47 134
-0.041153014 -0.039462693 0.0056501627 37 65 104
-0.041856289 -0.039435938 0.0045291185 73 99 129
-0.042559505 -0.039409176 0.003407836 81 97 124
-0.04326278 -0.039382413 0.0022866726 37 57 92
-0.043966055 -0.039355651 0.0011655092 25 45 92
-0.04311198 -0.039529517 -0.0012499094 24 48 83
-0.039928615 -0.040004075 -0.0056169033 35 55 84
-0.039084852 -0.040177539 -0.0080485344 53 73 90
-0.03746897 -0.040451087 -0.011137724 42 81 93
-0.036633611 -0.040624239 -0.013582826 50 102 105
-0.035801947 -0.040797263 -0.016033769 30 95 98
-0.034974039 -0.040970132 -0.018490672 20 84 88
-0.034921944 -0.041042797 -0.020296097 82 91 90
-0.034100533 -0.04121542 -0.022763431 138 114 118
-0.031742394 -0.041587889 -0.026557565 123 94 99
-0.031699538 -0.041660197 -0.028377831 109 64 62
-0.030890286 -0.041832358 -0.030864477 73 49 39
-0.03008467 -0.042004392 -0.033357084 34 41 74
-0.029282868 -0.042176262 -0.035855532 59 58 120
0.095305681 -0.055032045 -0.012936711 125 143 158
0.079615057 -0.053131133 -0.0039583445 183 163 136
0.078812122 -0.053100571 -0.0052384138 220 166 131
0.076360583 -0.052862421 -0.0053697824 255 193 165
0.075559497 -0.052831933 -0.0066468716 255 255 255
0.073113561 -0.052593999 -0.0067692995 255 255 255
0.07067138 -0.052356184 -0.006885767 190 201 195
0.068232894 -0.052118517 -0.006996274 156 167 174
0.06497848 -0.051777378 -0.0065191984 211 189 199
0.062548339 -0.051540025 -0.0066162348 216 196 215
0.060122013 -0.05130282 -0.0067075491 131 105 168
0.057699382 -0.051065773 -0.0067929029 63 25 172
0.055280447 -0.050828852 -0.0068722963 138 140 240
0.052865267 -0.050592065 -0.0069457293 135 135 255
0.048825681 -0.050148606 -0.0058317184 108 121 242
0.043167233 -0.049498677 -0.0035215616 93 98 225
0.040768862 -0.049262539 -0.0035682917 0 8 146
0.039996684 -0.049233153 -0.004799366 0 9 83
0.037603796 -0.048997223 -0.0048371553 38 38 70
0.036833465 -0.048967913 -0.0060652494 83 51 52
0.036063135 -0.048938587 -0.0072933435 79 116 119
0.0096443892 -0.045832649 0.0053553581 58 76 105
0.0089010596 -0.045804366 0.0041702986 0 48 101
0.0081577897 -0.045776077 0.0029853582 59 111 134
0.0074144602 -0.045747787 0.0018001795 0 132 154
0.0050691366 -0.045513675 0.0018382072 30 169 201
0.0043277144 -0.045485459 0.00065612793 107 177 227
0.0019879341 -0.045251556 0.00070297718 111 171 237
-0.0027427673 -0.044709355 0.0026036501 111 142 221
-0.0066668391 -0.044270299 0.0039016008 49 84 190
-0.0089907646 -0.044036984 0.0039738417 67 87 182
-0.011310875 -0.043803826 0.0040518045 55 124 202
-0.01442188 -0.04346814 0.004757762 142 136 201
-0.016733706 -0.043235295 0.0048490763 166 139 193
-0.019041777 -0.043002591 0.0049464703 155 137 178
-0.020554423 -0.042872593 0.0044233799 138 130 168
-0.021274447 -0.042845197 0.0032755136 145 118 145
-0.025153816 -0.042407833 0.0046448708 167 124 165
-0.029814661 -0.041868292 0.0066568851 147 134 179
-0.03289026 -0.041533962 0.0074192286 127 148 206
-0.036747158 -0.041097447 0.0088242292 116 143 223
-0.039024591 -0.040865906 0.008970499 0 80 188
-0.039727867 -0.040839143 0.0078493357 10 52 182
-0.040431082 -0.040812381 0.0067281723 36 36 137
-0.041134357 -0.040785618 0.0056070089 42 52 96
-0.041837633 -0.040758863 0.0044857264 60 70 107
-0.042540848 -0.040732101 0.003364563 58 71 100
-0.043244123 -0.040705338 0.0022433996 35 51 105
-0.043947399 -0.040678576 0.001122117 20 45 100
-0.043093264 -0.040855944 -0.0012933016 17 43 89
-0.03990978 -0.041339271 -0.0056605339 49 42 89
-0.039066017 -0.041516237 -0.0080922842 86 56 72
-0.037450016 -0.041795045 -0.011181712 75 75 70
-0.036614597 -0.041971698 -0.013626814 81 94 88
-0.035782874 -0.042148225 -0.016077995 94 94 94
-0.034954965 -0.042324595 -0.018535018 97 93 84
-0.034902811 -0.042399012 -0.020340443 105 92 83
-0.03408134 -0.042575143 -0.022807956 111 93 87
-0.031723082 -0.042954624 -0.026602268 112 91 86
-0.031680226 -0.043028682 -0.028422594 99 70 63
-0.030870914 -0.043204352 -0.030909359 70 58 53
-0.030065298 -0.043379888 -0.033402085 58 42 81
-0.029263377 -0.043555267 -0.035900652 41 60 123
0.095327437 -0.056574002 -0.012987256 62 80 95
0.092855334 -0.056331545 -0.01315105 131 110 84
0.089561701 -0.055983663 -0.012736082 191 137 102
0.076381803 -0.05436933 -0.0054190159 218 155 126
0.073933959 -0.054127805 -0.0055443048 236 223 220
0.07313478 -0.054097392 -0.0068184137 255 255 255
0.070692539 -0.05385609 -0.0069348812 243 255 248
0.068253994 -0.053614914 -0.007045269 243 254 255
0.064999521 -0.053268522 -0.006567955 255 255 255
0.060931921 -0.052816987 -0.0054982901 255 255 255
0.058507323 -0.052576348 -0.0055865049 131 105 168
0.056086481 -0.052335843 -0.0056687593 48 10 157
0.053669393 -0.052095488 -0.0057450533 153 156 255
0.051255941 -0.051855281 -0.0058153868 137 137 255
0.048846364 -0.051615208 -0.0058797598 104 118 239
0.043187797 -0.050954767 -0.0035692453 122 127 254
0.042413712 -0.050925314 -0.0048032999 2 26 163
0.040017128 -0.050685741 -0.0048469305 0 19 93
0.03762424 -0.050446302 -0.0048846006 47 48 79
0.036853909 -0.050416991 -0.0061126947 83 51 52
0.036083579 -0.050387681 -0.0073407888 22 59 62
0.0096641183 -0.047230922 0.005309701 152 169 198
0.0089207888 -0.047202639 0.0041245222 113 179 232
0.0081774592 -0.047174349 0.0029395819 154 205 228
0.0058302879 -0.046936654 0.0029746294 62 207 229
0.0050888062 -0.046908438 0.0017925501 42 181 213
0.004347384 -0.046880223 0.00061047077 114 184 234
0.002007544 -0.046642825 0.00065743923 130 190 255
-0.0019249916 -0.046196431 0.0019423962 156 186 255
-0.0034582019 -0.046063893 0.0013867617 40 75 181
-0.0089713931 -0.045408979 0.0039288998 55 75 170
-0.011291623 -0.045172311 0.0040071011 28 98 175
-0.014402628 -0.044831373 0.0047131777 112 106 170
-0.016714513 -0.044595025 0.0048046112 138 111 166
-0.019022644 -0.04435882 0.0049021244 147 129 170
-0.02053535 -0.044227064 0.0043791533 155 147 185
-0.021255374 -0.044199668 0.0032311678 152 125 152
-0.025134802 -0.0437553 0.0046007633 159 115 157
-0.029795766 -0.04320699 0.0066131353 124 111 156
-0.032871425 -0.042867392 0.007375598 121 142 200
-0.036728442 -0.042423874 0.0087808371 116 143 223
-0.039005935 -0.042188838 0.0089272261 0 90 198
-0.03970921 -0.042162076 0.0078060627 22 65 195
-0.040412426 -0.042135313 0.0066848993 34 34 134
-0.041115701 -0.042108551 0.0055636168 21 31 75
-0.041818976 -0.042081796 0.0044424534 36 46 83
-0.042522192 -0.042055033 0.00332129 43 55 85
-0.043225467 -0.042028271 0.0022001266 40 55 110
-0.043928742 -0.042001508 0.0010789633 34 58 114
-0.043074548 -0.042182378 -0.0013366938 22 47 93
-0.039890945 -0.04267446 -0.0057042837 51 45 91
-0.039047122 -0.042854935 -0.0081361532 83 52 69
-0.037431061 -0.043138996 -0.0112257 68 68 63
-0.036595583 -0.043319166 -0.013670921 78 92 85
-0.0357638 -0.043499187 -0.016122222 92 92 92
-0.034935832 -0.043679066 -0.018579364 92 88 80
-0.034883678 -0.043755241 -0.020384908 86 74 64
-0.034062207 -0.043934874 -0.022852421 89 71 65
-0.03170383 -0.044321343 -0.026646972 90 69 63
-0.031660974 -0.044397168 -0.028467357 90 60 54
-0.030851603 -0.044576347 -0.030954242 70 58 53
-0.030045927 -0.044755377 -0.033447027 68 53 92
-0.029243946 -0.044934265 -0.035945773 42 61 124
0.096168876 -0.058147147 -0.01173079 172 94 163
0.095349193 -0.058115959 -0.013037562 187 98 90
0.09287703 -0.057870016 -0.013201356 232 139 44
0.089583337 -0.057516858 -0.012786269 255 152 53
0.076403081 -0.05587624 -0.0054682493 231 137 0
0.073955178 -0.055631213 -0.0055934191 213 181 127
0.07151103 -0.05538632 -0.0057127476 255 204 154
0.070713699 -0.055355981 -0.0069838762 255 233 205
0.068275094 -0.055111319 -0.007094264 255 255 255
0.065020502 -0.054759651 -0.0066167116 255 255 255
0.060952842 -0.054301128 -0.0055469275 255 255 255
0.058528185 -0.054056987 -0.0056349039 138 71 143
0.056107283 -0.053812973 -0.0057170391 68 0 129
0.053690195 -0.053569123 -0.0057932138 154 112 205
0.051276684 -0.053325392 -0.0058634281 151 121 231
0.048867047 -0.053081825 -0.0059276819 110 115 235
0.046461046 -0.0528384 -0.0059860945 145 144 254
0.04405874 -0.052595109 -0.0060385466 16 28 161
0.04166019 -0.052351952 -0.006084919 0 16 96
0.039265454 -0.052108951 -0.0061254501 35 69 104
0.036874354 -0.051866084 -0.0061600208 73 88 111
0.036104023 -0.051836774 -0.0073882341 42 42 42
0.011913776 -0.048714057 0.008818984 0 23 12
0.010427117 -0.048657484 0.0064488649 155 144 168
0.0096838474 -0.048629194 0.0052639246 95 172 194
0.0089405179 -0.048600912 0.0040788651 199 197 215
0.0081971884 -0.048572622 0.0028938055 212 214 234
0.0058499575 -0.048331432 0.0029289722 234 224 246
0.0051084757 -0.048303217 0.0017468929 176 205 228
0.0043670535 -0.048275001 0.00056481361 196 205 220
0.0036255717 -0.048246786 -0.0006172657 180 206 250
-0.00030893087 -0.047793314 0.00066494942 187 197 255
-0.0034387112 -0.047446392 0.0013414621 60 78 178
-0.0073592067 -0.046993464 0.0026459694 56 77 162
-0.011272311 -0.046540797 0.0039622784 86 91 177
-0.014383435 -0.046194598 0.0046684742 71 89 177
-0.016695321 -0.045954742 0.0047601461 34 80 161
-0.01900351 -0.045715027 0.0048577785 86 87 158
-0.020516276 -0.045581527 0.0043348074 147 115 161
-0.0212363 -0.045554131 0.0031868219 140 117 137
-0.025115788 -0.045102753 0.0045567751 144 113 136
-0.029776931 -0.044545688 0.0065692663 79 101 129
-0.03285265 -0.044200845 0.0073319674 103 145 202
-0.036709785 -0.043750316 0.0087374449 113 140 236
-0.038987279 -0.043511763 0.0088839531 34 81 190
-0.039690554 -0.043485001 0.0077627897 46 73 174
-0.04039377 -0.043458238 0.0066416264 10 32 129
-0.041097045 -0.043431476 0.005520463 0 27 94
-0.04180032 -0.043404721 0.0043991804 22 39 98
-0.042503536 -0.043377958 0.003278017 25 48 103
-0.043206811 -0.043351196 0.0021568537 38 59 111
-0.042350709 -0.04353565 -0.00025594234 69 76 123
-0.043055832 -0.043508813 -0.0013800859 61 43 94
-0.038316607 -0.044220716 -0.0070453882 67 40 79
-0.037474573 -0.044404633 -0.0094803572 102 63 71
-0.037412167 -0.044482946 -0.011269689 109 78 55
-0.036576569 -0.044666618 -0.01371491 121 94 80
-0.035744786 -0.044850141 -0.016166329 119 96 77
-0.034916759 -0.045033529 -0.01862371 107 90 66
-0.034864604 -0.045111448 -0.020429254 106 69 43
-0.034043014 -0.04529459 -0.022896886 141 87 71
-0.031684577 -0.045688085 -0.026691675 114 85 81
-0.030102909 -0.045976087 -0.029836357 80 56 55
-0.02775836 -0.046369046 -0.033653498 15 45 58
-0.026956439 -0.046551444 -0.036152303 21 49 86
0.096190572 -0.059689105 -0.011781216 181 103 173
0.095370889 -0.059657916 -0.013088107 201 112 104
0.092898726 -0.059408471 -0.013251662 241 148 54
0.089604974 -0.059050053 -0.012836337 255 172 73
0.085492432 -0.058582813 -0.011837602 255 168 17
0.073976338 -0.057134628 -0.0056426525 160 128 74
0.07153219 -0.056886226 -0.0057617426 188 119 69
0.070734859 -0.056855887 -0.0070329905 171 128 101
0.068296194 -0.056607708 -0.0071431398 219 219 206
0.065041542 -0.056250796 -0.0066654682 255 255 255
0.060973763 -0.055785254 -0.0055954456 255 255 255
0.058549106 -0.055537611 -0.0056834221 110 43 115
0.056128144 -0.055290103 -0.0057653189 60 0 121
0.053710997 -0.055042744 -0.0058413744 131 88 182
0.049667358 -0.054578111 -0.004732728 122 92 202
0.04725945 -0.054331094 -0.0047938824 63 68 188
0.046481669 -0.0543015 -0.0060338974 100 100 209
0.045703888 -0.054271899 -0.0072739124 10 22 155
0.041680753 -0.053808048 -0.0061324835 3 26 107
0.039285898 -0.053561553 -0.0061730146 41 75 110
0.036894798 -0.053315163 -0.0062074661 67 82 105
0.036124468 -0.053285852 -0.0074355602 44 44 44
0.035354137 -0.053256541 -0.0086636543 0 33 21
0.010446846 -0.050055757 0.0064032078 132 122 146
0.009703517 -0.050027467 0.0052181482 3 80 102
0.008960247 -0.049999185 0.0040330887 100 98 116
0.0082169175 -0.049970895 0.0028480291 182 184 204
0.007473588 -0.049942605 0.0016630888 187 177 199
0.0051281452 -0.049697988 0.0017012358 124 152 175
0.004386723 -0.049669772 0.00051915646 182 191 206
0.0036452413 -0.049641557 -0.00066292286 177 203 247
-0.00028938055 -0.049181066 0.00061953068 182 193 255
-0.0026217699 -0.048936933 0.00067865849 62 81 180
-0.0057469606 -0.048584945 0.0013628006 42 63 148
-0.0096620321 -0.0481252 0.0026763678 73 79 164
-0.014364183 -0.047557823 0.0046238899 48 67 155
-0.016676188 -0.047314465 0.0047156811 10 55 137
-0.018984437 -0.047071256 0.0048133135 57 58 129
-0.020497143 -0.046935998 0.0042904615 146 114 160
-0.021217167 -0.046908602 0.0031425953 172 150 169
-0.025096834 -0.046450205 0.0045126677 176 146 169
-0.029758036 -0.045884378 0.0065255165 98 120 148
-0.032833815 -0.045534275 0.0072883368 114 157 214
-0.03669107 -0.045076743 0.0086940527 119 146 241
-0.038968623 -0.044834688 0.0088406801 29 77 185
-0.039671898 -0.044807926 0.0077195168 32 59 160
-0.040375173 -0.044781163 0.0065983534 4 26 123
-0.041078389 -0.044754401 0.0054770708 0 33 100
-0.041781664 -0.044727646 0.0043559074 31 47 106
-0.042484939 -0.044700883 0.0032347441 27 49 104
-0.043188155 -0.044674121 0.0021135807 34 56 107
-0.042332053 -0.044862084 -0.00029933453 54 61 108
-0.041479766 -0.045049891 -0.002718091 50 33 84
-0.038297713 -0.045559406 -0.007089138 62 36 74
-0.037455618 -0.045746841 -0.0095242262 113 73 82
-0.037393212 -0.045826904 -0.011313558 112 81 59
-0.036557615 -0.046014071 -0.013759017 110 83 69
-0.035725713 -0.04620111 -0.016210556 105 82 63
-0.034897625 -0.046388 -0.018667936 100 83 59
-0.034845471 -0.046467677 -0.020473599 121 84 58
-0.032481253 -0.046868384 -0.024259746 165 112 95
-0.029354215 -0.047375828 -0.028718472 136 108 103
-0.027005851 -0.047775954 -0.032529891 92 67 67
-0.027738929 -0.047748052 -0.033698559 29 59 72
-0.026936948 -0.047933951 -0.036197543 25 54 90
0.095373929 -0.061040282 -0.0093904734 160 123 72
0.094556093 -0.061009169 -0.010694385 180 122 111
0.093738258 -0.06097804 -0.011998296 207 124 74
0.090441585 -0.060614273 -0.011587143 248 150 70
0.087975979 -0.060361564 -0.011740327 255 168 92
0.083865166 -0.059887365 -0.010738373 255 162 80
0.078938425 -0.059302688 -0.0091483593 255 160 66
0.076488554 -0.059050575 -0.0092762709 242 144 10
0.07404238 -0.058798611 -0.0093983412 214 130 0
0.069958627 -0.05832544 -0.0083532333 223 146 0
0.067521811 -0.058073834 -0.0084604025 255 225 200
0.062632263 -0.057490572 -0.0068110228 255 240 241
0.058569968 -0.05701822 -0.0057318211 160 81 92
0.054515123 -0.056546167 -0.0046406984 97 36 87
0.052099645 -0.056295365 -0.0047136545 118 133 196
0.049688041 -0.056044713 -0.0047806501 132 131 234
0.047280073 -0.055794202 -0.0048418045 68 125 232
0.044875801 -0.05554384 -0.0048969984 96 95 221
0.044099927 -0.055514313 -0.006133914 9 4 140
0.041701257 -0.055264145 -0.0061801672 12 18 61
0.039306402 -0.055014133 -0.0062204599 56 57 82
0.036915243 -0.054764256 -0.0062547922 62 71 79
0.036144912 -0.054734945 -0.0074830055 36 39 50
0.035374582 -0.054705635 -0.0087110996 0 29 19
0.011332929 -0.051645882 0.0039608479 5 97 116
0.010587752 -0.051617526 0.0027728081 0 73 93
0.0082366467 -0.051369168 0.0028022528 114 123 144
0.0074933171 -0.051340878 0.0016173124 9 112 159
0.0067499876 -0.051312596 0.00043225288 0 73 108
0.0060067177 -0.051284306 -0.00075280666 48 99 91
0.0036649108 -0.051036321 -0.00070846081 139 128 166
-0.00026983023 -0.050568826 0.00057423115 138 152 186
-0.0026022792 -0.050321184 0.00063335896 45 90 160
-0.004134655 -0.050183438 7.9274178e-05 29 77 158
-0.0096427202 -0.049497187 0.0026315451 39 83 162
-0.01434499 -0.048921056 0.0045793056 18 60 160
-0.016656995 -0.048674189 0.004671216 28 42 136
-0.018965304 -0.04842747 0.0047689676 60 49 135
-0.02047807 -0.048290461 0.0042461157 146 118 161
-0.021198094 -0.048263066 0.0030982494 162 164 173
-0.02507782 -0.047797665 0.0044685602 119 151 171
-0.028161108 -0.047442019 0.0052195787 85 99 131
-0.032026887 -0.046977162 0.0066121817 147 134 200
-0.035098135 -0.046621963 0.0073826313 147 141 240
-0.037377477 -0.046376348 0.0075265169 76 87 197
-0.039653242 -0.046130858 0.0076762438 34 69 166
-0.040356517 -0.046104096 0.0065549612 0 39 129
-0.041059732 -0.046077333 0.005433917 25 47 105
-0.041763008 -0.046050578 0.0043126345 34 50 104
-0.042466283 -0.046023816 0.0031914711 34 56 100
-0.043169498 -0.045997053 0.0020703077 37 54 106
-0.042313337 -0.046188518 -0.00034272671 37 54 106
-0.041460991 -0.046379827 -0.0027616024 35 33 86
-0.039834499 -0.046680048 -0.0058352947 54 38 80
-0.037436724 -0.04708904 -0.0095682144 107 77 84
-0.037374258 -0.047170855 -0.011357546 110 85 64
-0.036538601 -0.04736153 -0.013803124 109 80 58
-0.035706699 -0.047552072 -0.016254783 85 71 57
-0.034878552 -0.047742464 -0.018712163 77 93 81
-0.034826338 -0.047823891 -0.020517945 50 96 81
-0.03246206 -0.048231617 -0.02430433 37 122 120
-0.027794123 -0.048965335 -0.030084848 70 123 121
-0.02698642 -0.049154945 -0.032575011 72 71 74
-0.027719498 -0.049127042 -0.03374368 0 61 69
-0.026917458 -0.049316451 -0.036242783 74 57 81
0.095395625 -0.062578723 -0.0094407797 161 124 73
0.094577789 -0.062547609 -0.010744691 171 113 102
0.091278255 -0.062178463 -0.010337949 218 135 84
0.088810682 -0.061922193 -0.010493875 251 152 73
0.087997556 -0.061891258 -0.011790395 255 153 77
0.083886623 -0.061410055 -0.010788202 255 157 75
0.078959763 -0.060816601 -0.0091979504 255 175 81
0.076509833 -0.060560986 -0.0093256235 255 178 44
0.074063599 -0.060305521 -0.0094475746 252 167 19
0.07162118 -0.060050204 -0.009563446 233 156 0
0.067542911 -0.059570231 -0.0085092783 135 102 78
