ply
format ascii 1.0
comment Created by CloudCompare v2.10.2 (Zephyrus)
comment Created 2021/9/8 5:48
obj_info Generated by CloudCompare!
element vertex 1093
property float x
property float y
property float z
property uchar red
property uchar green
property uchar blue
end_header
-0.00621736 0.00988001 -0.0297385 58 56 129 
-0.00540608 0.0097853 -0.0322193 42 41 144 
-0.00617951 0.00981509 -0.0334537 47 39 159 
-0.00695288 0.00984487 -0.0346881 128 120 183 
0.0162306 0.00796553 0.0286652 252 254 254 
0.0138091 0.00812575 0.0285761 253 255 255 
0.0113914 0.00828582 0.028493 231 239 242 
0.00897735 0.00844574 0.0284159 163 175 178 
0.006567 0.00860553 0.0283448 168 165 172 
0.00581408 0.00863452 0.027143 153 119 132 
0.00506109 0.00866352 0.0259413 120 108 132 
0.00430816 0.00869252 0.0247394 0 0 49 
0.00520331 0.00859107 0.0223923 0 0 69 
0.00444853 0.00862014 0.0211875 0 0 65 
0.0036937 0.00864921 0.0199828 4 12 56 
0.00293887 0.00867827 0.0187781 25 7 55 
0.00218409 0.00870734 0.0175734 12 8 61 
0.00142926 0.00873641 0.0163686 17 6 72 
0.000674486 0.00876547 0.0151639 24 1 82 
-8.03471e-05 0.00879454 0.0139592 0 8 95 
-0.000835121 0.00882361 0.0127544 3 5 107 
4.13656e-05 0.00872289 0.0103775 8 0 106 
-0.000715256 0.00875203 0.00916994 11 2 108 
0.000155628 0.00865154 0.00678408 15 0 120 
0.00102282 0.00855117 0.00439239 16 0 128 
0.000262439 0.00858045 0.00317872 11 0 132 
0.00112408 0.00848031 0.000778079 18 0 142 
0.0003618 0.00850966 -0.000438571 17 3 140 
-0.000400424 0.00853902 -0.00165522 22 9 134 
0.00045377 0.00843916 -0.00406766 19 2 141 
-0.000310361 0.00846858 -0.00528729 17 2 150 
-0.00107449 0.00849801 -0.0065068 8 0 151 
-0.00183856 0.00852744 -0.00772643 17 0 152 
-0.0026027 0.00855686 -0.00894606 20 0 149 
-0.00336683 0.00858629 -0.0101656 0 0 146 
-0.0041309 0.00861571 -0.0113852 13 25 137 
-0.00489503 0.00864514 -0.0126048 0 88 153 
-0.00405759 0.00854592 -0.0150441 37 148 198 
-0.0032239 0.00844686 -0.0174893 73 147 198 
-0.0023939 0.00834792 -0.0199405 41 130 196 
-0.00316358 0.00837756 -0.0211689 49 103 181 
-0.00393331 0.0084072 -0.0223974 23 75 155 
-0.00311077 0.00830857 -0.0248605 54 69 132 
-0.00388229 0.00833829 -0.0260919 72 58 101 
-0.00465387 0.008368 -0.0273234 70 62 73 
-0.00542539 0.00839771 -0.0285549 76 65 96 
-0.00619698 0.00842743 -0.0297863 66 57 111 
-0.00538564 0.00832922 -0.0322672 63 33 122 
-0.00615907 0.008359 -0.0335016 54 39 144 
-0.0069325 0.00838878 -0.034736 129 112 174 
0.0162507 0.00653398 0.0286181 249 252 251 
0.0138292 0.0066977 0.0285292 255 255 255 
0.0114114 0.00686127 0.0284462 233 241 244 
0.00899726 0.0070247 0.0283692 159 172 174 
0.00658691 0.00718799 0.028298 155 152 160 
0.00583392 0.00721698 0.0270963 79 45 57 
0.005081 0.00724598 0.0258945 3 0 15 
0.00432807 0.00727498 0.0246928 0 0 28 
0.00522321 0.00717003 0.0223455 0 0 65 
0.00446844 0.0071991 0.0211408 0 0 64 
0.00371361 0.00722817 0.0199361 1 9 53 
0.00295883 0.00725723 0.0187314 18 0 48 
0.002204 0.0072863 0.0175266 0 0 47 
0.00144923 0.00731537 0.0163219 7 0 62 
0.000694394 0.00734443 0.0151172 6 0 65 
-6.04391e-05 0.0073735 0.0139124 0 0 72 
-0.000815213 0.00740257 0.0127077 0 0 77 
6.13332e-05 0.00729834 0.0103307 0 0 78 
-0.000695288 0.00732748 0.00912297 0 0 79 
0.000175655 0.00722348 0.00673711 9 0 114 
0.0010429 0.00711962 0.0043453 16 0 128 
0.000282526 0.0071489 0.00313163 10 0 130 
0.00114417 0.00704524 0.000730872 19 1 143 
0.000381947 0.0070746 -0.000485778 15 1 137 
-0.000380337 0.00710395 -0.00170243 17 4 129 
-0.00114256 0.0071333 -0.00291908 19 2 141 
-0.000290215 0.00703003 -0.00533462 19 3 151 
-0.00105429 0.00705945 -0.00655425 9 0 152 
-0.00181842 0.00708888 -0.00777376 18 0 154 
-0.00258255 0.0071183 -0.00899339 23 0 152 
-0.00334662 0.00714773 -0.010213 0 0 149 
-0.00411075 0.00717715 -0.0114325 6 18 130 
-0.00487489 0.00720658 -0.0126522 0 75 140 
-0.00403738 0.00710385 -0.0150915 48 158 209 
-0.00320363 0.00700129 -0.0175369 84 157 209 
-0.00237358 0.00689885 -0.0199882 56 146 211 
-0.00314325 0.00692849 -0.0212166 82 135 213 
-0.00391299 0.00695814 -0.0224451 35 88 168 
-0.00309038 0.00685599 -0.0249083 66 80 144 
-0.00386196 0.0068857 -0.0261397 71 56 100 
-0.00463349 0.00691541 -0.0273712 69 61 72 
-0.00540507 0.00694513 -0.0286027 72 62 93 
-0.00617659 0.00697484 -0.0298342 58 49 103 
-0.00536525 0.00687313 -0.0323151 63 33 122 
-0.00613868 0.00690291 -0.0335495 49 34 139 
-0.00691205 0.00693269 -0.034784 123 107 168 
0.0155104 0.0051317 0.0273573 255 255 255 
0.0114313 0.00543672 0.0283993 243 242 245 
0.00901717 0.00560366 0.0283223 166 175 181 
0.00660676 0.00577045 0.0282514 99 151 161 
0.00585383 0.00579944 0.0270497 58 73 96 
0.00510085 0.00582844 0.0258479 0 0 71 
0.00599796 0.00571992 0.0235034 0 0 55 
0.00524318 0.00574899 0.0222987 0 0 82 
0.00448835 0.00577806 0.021094 14 0 82 
0.00373358 0.00580712 0.0198892 2 11 78 
0.00297874 0.00583619 0.0186845 11 5 76 
0.00222391 0.00586525 0.0174798 0 0 80 
0.00146914 0.00589433 0.016275 11 0 70 
0.000714302 0.00592339 0.0150703 0 0 69 
-4.04716e-05 0.00595246 0.0138656 19 0 59 
0.000837982 0.00584466 0.0114914 0 0 51 
8.13603e-05 0.00587379 0.0102838 2 0 57 
-0.000675321 0.00590293 0.00907612 3 0 63 
0.000195622 0.00579542 0.00669014 29 13 81 
0.00106299 0.00568806 0.00429809 15 11 96 
0.000302553 0.00571734 0.00308454 18 0 119 
0.00116432 0.00561019 0.000683546 14 0 139 
0.000402093 0.00563954 -0.000532985 18 5 132 
-0.000360191 0.0056689 -0.00174963 15 11 125 
-0.00112242 0.00569825 -0.00296628 18 5 139 
-0.0018847 0.0057276 -0.00418293 18 0 152 
-0.00264692 0.00575696 -0.00539947 22 0 150 
-0.00179821 0.0056503 -0.0078212 20 0 154 
-0.00256234 0.00567973 -0.00904071 16 0 150 
-0.00332648 0.00570916 -0.0102602 1 0 150 
-0.00409061 0.00573858 -0.0114799 0 0 115 
-0.00485468 0.00576801 -0.0126995 0 51 99 
-0.00401717 0.00566179 -0.015139 38 160 197 
-0.00318336 0.00555571 -0.0175844 95 165 208 
-0.00395119 0.00558528 -0.0188099 51 159 210 
-0.00312299 0.00547941 -0.0212643 95 143 197 
-0.00389266 0.00550904 -0.0224928 73 86 154 
-0.00307 0.0054034 -0.0249561 75 78 137 
-0.00384158 0.00543311 -0.0261875 60 51 98 
-0.0046131 0.00546283 -0.027419 63 58 72 
-0.00538468 0.00549254 -0.0286505 74 62 84 
-0.00615627 0.00552225 -0.029882 63 60 83 
-0.00534481 0.00541703 -0.0323631 57 46 98 
-0.00611824 0.00544682 -0.0335975 49 40 121 
-0.00689167 0.0054766 -0.0348319 127 85 142 
0.0155305 0.00370014 0.0273103 255 255 255 
0.0114513 0.00401217 0.0283524 244 244 246 
0.00903714 0.00418261 0.0282756 170 180 185 
0.0082823 0.00421167 0.0270709 110 161 171 
0.00587368 0.0043819 0.0270029 136 151 174 
0.00512075 0.00441089 0.0258013 65 77 155 
0.00436777 0.00443989 0.0245994 0 0 65 
0.00526309 0.00432794 0.022252 0 0 78 
0.00450826 0.00435701 0.0210472 14 0 82 
0.00375348 0.00438607 0.0198425 0 9 76 
0.00299865 0.00441514 0.0186378 9 4 75 
0.00224388 0.0044442 0.017433 2 6 88 
0.00148904 0.00447328 0.0162283 21 8 81 
0.00073427 0.00450234 0.0150236 12 6 85 
-2.05636e-05 0.00453141 0.0138189 33 10 73 
0.000857949 0.00442012 0.0114446 14 9 71 
0.000101328 0.00444925 0.0102369 16 8 71 
-0.000655353 0.00447839 0.00902927 10 0 70 
0.00021565 0.00436738 0.00664306 22 6 74 
0.00108302 0.0042565 0.004251 6 2 87 
0.00032264 0.00428578 0.00303733 13 0 115 
0.00118446 0.00417512 0.000636339 11 0 137 
0.00042218 0.00420448 -0.000580192 24 10 138 
-0.000340044 0.00423383 -0.00179684 17 13 128 
-0.00110233 0.00426318 -0.00301349 20 6 140 
-0.00186455 0.00429254 -0.00423014 18 0 152 
-0.00262684 0.00432189 -0.00544667 22 0 150 
-0.00338906 0.00435125 -0.00666332 18 0 151 
-0.00415134 0.00438059 -0.00787997 16 0 150 
-0.00330633 0.00427059 -0.0103077 4 0 154 
-0.0040704 0.00430001 -0.0115272 0 0 97 
-0.00483453 0.00432944 -0.0127468 0 19 67 
-0.00399691 0.00421971 -0.0151864 20 141 178 
-0.0031631 0.00411014 -0.017632 104 173 216 
-0.00393093 0.0041397 -0.0188576 65 173 224 
-0.00310266 0.00403034 -0.021312 100 148 201 
-0.00387233 0.00405998 -0.0225405 69 82 151 
-0.00464201 0.00408962 -0.023769 61 64 123 
-0.00382119 0.00398053 -0.0262353 63 54 101 
-0.00459278 0.00401025 -0.0274668 64 59 74 
-0.0053643 0.00403996 -0.0286983 73 61 83 
-0.00455099 0.00393117 -0.0311765 63 60 83 
-0.00374126 0.00382252 -0.0336607 59 48 100 
-0.00451654 0.00385237 -0.0348982 44 35 116 
-0.00529182 0.00388223 -0.0361356 124 82 139 
0.0155506 0.00226859 0.027263 255 255 255 
0.0131307 0.00244274 0.0271775 247 246 248 
0.0107147 0.00261676 0.0270978 167 179 184 
0.00830221 0.00279063 0.0270241 154 165 177 
0.00589359 0.00296436 0.0269563 138 165 192 
0.0051406 0.00299336 0.0257546 109 117 168 
0.00438768 0.00302236 0.0245528 0 0 101 
0.005283 0.0029069 0.0222052 0 0 112 
0.00452822 0.00293597 0.0210005 0 0 119 
0.00377339 0.00296503 0.0197958 0 0 121 
0.00301862 0.0029941 0.018591 0 0 115 
0.00226378 0.00302316 0.0173863 7 0 100 
0.00150895 0.00305223 0.0161816 24 0 96 
0.000754178 0.0030813 0.0149769 23 1 94 
-6.55651e-07 0.00311036 0.0137721 0 0 94 
0.000877976 0.00299557 0.0113977 2 2 96 
0.000121295 0.0030247 0.01019 0 2 103 
0.000994205 0.00291011 0.00780678 0 0 102 
0.00186348 0.00279567 0.00541759 10 0 109 
0.00272906 0.00268136 0.00302231 1 0 111 
0.00196683 0.00271071 0.00180566 10 0 125 
0.00120455 0.00274007 0.000589132 0 0 142 
0.000442326 0.00276942 -0.000627518 9 5 131 
-0.000319958 0.00279878 -0.00184405 9 11 120 
-0.00108218 0.00282812 -0.0030607 17 9 136 
-0.00184447 0.00285748 -0.00427735 11 0 151 
-0.00260669 0.00288684 -0.005494 8 0 151 
-0.00336897 0.00291619 -0.00671053 8 0 150 
-0.0041312 0.00294554 -0.00792718 3 0 151 
-0.00328612 0.00283203 -0.010355 15 3 153 
-0.00405025 0.00286145 -0.0115746 0 0 91 
-0.00481433 0.00289088 -0.0127941 0 0 29 
-0.0039767 0.00277764 -0.0152339 3 125 155 
-0.00314283 0.00266456 -0.0176796 116 138 168 
-0.00391066 0.00269412 -0.018905 98 141 177 
-0.00308233 0.00258125 -0.0213597 118 141 181 
-0.00385201 0.00261089 -0.0225881 33 90 131 
-0.00462168 0.00264053 -0.0238167 62 65 97 
-0.00380081 0.00252795 -0.0262832 75 62 87 
-0.00457239 0.00255767 -0.0275146 73 65 75 
-0.00534397 0.00258738 -0.0287461 73 64 77 
-0.00453055 0.00247508 -0.0312244 68 63 76 
-0.00530398 0.00250486 -0.0324589 58 51 93 
-0.0044961 0.00239278 -0.0349462 54 29 110 
-0.00527138 0.00242263 -0.0361836 108 68 125 
0.0155706 0.000837028 0.027216 255 255 255 
0.0131508 0.00101469 0.0271305 248 247 250 
0.0107346 0.00119221 0.027051 167 179 184 
0.00832218 0.00136959 0.0269774 151 163 175 
0.00756735 0.00139865 0.0257727 137 164 191 
0.00681257 0.00142772 0.024568 112 119 171 
0.00605774 0.00145679 0.0233632 0 0 105 
0.00530297 0.00148585 0.0221585 0 0 122 
0.00454813 0.00151493 0.0209538 8 2 133 
0.0037933 0.00154399 0.019749 15 9 140 
0.00303853 0.00157306 0.0185443 0 0 123 
0.00228369 0.00160212 0.0173396 8 0 101 
0.00152892 0.00163119 0.0161349 22 0 93 
0.000774086 0.00166026 0.0149301 28 6 98 
1.93119e-05 0.00168932 0.0137254 1 2 100 
0.000897944 0.00157101 0.0113509 11 12 105 
0.000141263 0.00160015 0.0101432 9 13 115 
0.00101423 0.00148206 0.00775969 10 14 116 
0.00188357 0.0013641 0.0053705 18 0 118 
0.0027492 0.00124629 0.00297511 2 0 112 
0.00198692 0.00127565 0.00175846 10 0 125 
0.0012247 0.001305 0.000541925 0 0 142 
0.000462413 0.00133436 -0.000674725 9 5 131 
-0.000299811 0.00136371 -0.00189137 9 11 120 
-0.0010621 0.00139306 -0.00310791 17 9 136 
-0.00182432 0.00142242 -0.00432456 13 1 153 
-0.0025866 0.00145177 -0.00554121 8 0 151 
-0.00334883 0.00148113 -0.00675786 8 0 150 
-0.00411111 0.00151047 -0.00797439 1 0 149 
-0.00326598 0.00139346 -0.0104023 15 3 153 
-0.00403005 0.00142288 -0.011622 0 0 96 
-0.00479418 0.00145231 -0.0128416 0 0 29 
-0.0039565 0.00133557 -0.0152813 0 46 76 
-0.00312251 0.00121899 -0.0177273 24 46 76 
-0.0038904 0.00124855 -0.0189527 12 54 91 
-0.00306201 0.00113217 -0.0214075 33 56 96 
-0.00383168 0.00116181 -0.0226358 0 52 93 
-0.00460142 0.00119146 -0.0238644 53 56 88 
-0.00378048 0.00107536 -0.026331 75 62 87 
-0.00455201 0.00110508 -0.0275624 74 66 76 
-0.00532359 0.00113479 -0.0287939 72 63 76 
-0.00451016 0.00101899 -0.0312724 63 59 71 
-0.00528359 0.00104877 -0.0325068 58 51 93 
-0.00447559 0.000933185 -0.0349942 57 32 114 
-0.00525087 0.00096304 -0.0362316 104 65 121 
0.0163511 -0.0006238 0.0283825 233 233 233 
0.0155907 -0.000594519 0.0271689 255 255 255 
0.0131707 -0.000413354 0.0270835 249 247 252 
0.0107546 -0.000232339 0.0270041 172 180 184 
0.00834209 -5.14612e-05 0.0269306 157 169 174 
0.00758725 -2.23964e-05 0.0257258 154 168 187 
0.00683248 6.67572e-06 0.0245211 117 127 166 
0.00607765 3.57404e-05 0.0233164 0 0 102 
0.00532287 6.48052e-05 0.0221117 0 0 134 
0.00456804 9.38773e-05 0.0209069 0 0 124 
0.00381327 0.000122942 0.0197022 0 6 116 
0.00305843 0.000152007 0.0184975 0 2 98 
0.00230366 0.000181071 0.0172927 0 0 85 
0.00154883 0.000210144 0.016088 6 0 77 
0.000793993 0.000239208 0.0148833 9 0 70 
3.92199e-05 0.000268273 0.0136786 16 0 80 
-0.000715613 0.000297345 0.0124738 12 0 84 
0.000161231 0.000175595 0.0100962 0 9 93 
-0.00059545 0.000204735 0.0088886 10 8 102 
0.000275731 8.32193e-05 0.00650203 4 0 117 
0.00114328 -3.81619e-05 0.00410974 3 0 134 
0.00200707 -0.000159416 0.00171125 0 0 134 
0.00124478 -0.000130061 0.000494599 0 0 139 
0.000482559 -0.000100706 -0.000721931 5 9 132 
-0.000279725 -7.13505e-05 -0.00193858 10 12 121 
-0.00104195 -4.20026e-05 -0.00315511 9 10 136 
-0.00180423 -1.26474e-05 -0.00437176 13 2 152 
-0.00256646 1.67079e-05 -0.00558841 8 0 151 
-0.00332874 4.60632e-05 -0.00680506 8 0 151 
-0.00409096 7.54111e-05 -0.00802159 1 0 152 
-0.00324577 -4.51058e-05 -0.0104496 12 0 154 
-0.0040099 -1.56835e-05 -0.0116693 31 0 119 
-0.00477403 1.37463e-05 -0.0128888 0 0 80 
-0.00393629 -0.000106495 -0.0153288 31 29 84 
-0.00310224 -0.000226587 -0.0177747 3 38 76 
-0.00387013 -0.000197023 -0.0190003 57 55 89 
-0.00463796 -0.000167452 -0.0202259 61 60 88 
-0.00381136 -0.000287268 -0.0226836 75 58 88 
-0.00458109 -0.000257622 -0.0239121 72 64 88 
-0.00535077 -0.000227984 -0.0251406 71 65 84 
-0.00453168 -0.000347503 -0.0276102 66 67 78 
-0.0053032 -0.00031779 -0.0288417 60 63 76 
-0.00448972 -0.000437099 -0.0313203 49 56 71 
-0.00367987 -0.000556268 -0.0338048 55 56 95 
-0.00445515 -0.000526413 -0.0350422 60 37 111 
-0.00523043 -0.000496559 -0.0362797 95 40 108 
0.0154663 -0.00192905 0.0306685 202 215 217 
0.0147078 -0.00189983 0.0294578 225 225 225 
0.0139493 -0.00187062 0.0282471 255 255 255 
0.0131907 -0.00184142 0.0270365 250 249 253 
0.0124322 -0.0018122 0.0258259 176 184 187 
0.008362 -0.0014725 0.0268838 157 169 174 
0.00760722 -0.00144344 0.0256791 156 171 189 
0.00685239 -0.00141437 0.0244744 121 130 170 
0.00609761 -0.0013853 0.0232697 0 0 101 
0.00534278 -0.00135624 0.0220649 0 0 129 
0.00458801 -0.00132716 0.0208602 0 0 108 
0.00383317 -0.0012981 0.0196555 0 0 77 
0.00307834 -0.00126904 0.0184507 0 0 70 
0.00232357 -0.00123997 0.017246 0 0 64 
0.00156873 -0.0012109 0.0160413 0 0 62 
0.000813961 -0.00118183 0.0148365 0 0 52 
5.91278e-05 -0.00115277 0.0136318 0 0 58 
-0.000695646 -0.0011237 0.0124271 0 0 57 
0.000181198 -0.00124895 0.0100493 0 0 65 
-0.000575483 -0.00121981 0.00884163 0 0 76 
0.000295758 -0.00134484 0.00645506 10 1 123 
0.0011633 -0.00146972 0.00406253 14 2 146 
0.000402927 -0.00144044 0.00284898 1 0 137 
0.00126493 -0.00156512 0.000447392 1 0 141 
0.000502646 -0.00153577 -0.000769258 12 16 139 
-0.000259578 -0.00150641 -0.00198579 17 19 128 
-0.00102186 -0.00147707 -0.00320244 11 12 137 
-0.00178409 -0.00144771 -0.00441897 13 2 152 
-0.00254637 -0.00141836 -0.00563562 8 0 151 
-0.00330859 -0.001389 -0.00685227 8 0 151 
-0.00407082 -0.00135965 -0.00806892 2 0 153 
-0.00322562 -0.00148367 -0.010497 10 0 151 
-0.00398976 -0.00145425 -0.0117166 43 0 131 
-0.00475383 -0.00142482 -0.0129362 21 22 113 
-0.00551796 -0.0013954 -0.0141557 37 34 90 
-0.00468206 -0.00151908 -0.0165988 14 49 86 
-0.00544804 -0.00148957 -0.0178214 89 86 121 
-0.00461769 -0.00161303 -0.0202733 89 88 116 
-0.00538552 -0.00158346 -0.0214989 85 68 98 
-0.00456077 -0.0017067 -0.0239598 75 66 90 
-0.00533044 -0.00167706 -0.0251883 75 68 87 
-0.0045113 -0.00180009 -0.027658 66 67 78 
-0.00528282 -0.00177038 -0.0288895 63 65 78 
-0.00446934 -0.00189319 -0.0313682 55 61 76 
-0.00524276 -0.00186341 -0.0326027 59 60 98 
-0.0044347 -0.001986 -0.0350903 57 35 109 
-0.00520998 -0.00195615 -0.0363277 86 32 100 
0.0154864 -0.0033571 0.0306215 214 217 221 
0.0147278 -0.00332788 0.0294108 215 218 222 
0.0123079 -0.00313971 0.0293257 255 255 255 
0.0115512 -0.00311057 0.028118 248 249 253 
0.0107945 -0.00308143 0.0269103 183 187 189 
0.0100378 -0.00305229 0.0257026 159 172 174 
0.00762713 -0.00286449 0.0256323 155 171 185 
0.00687236 -0.00283542 0.0244275 129 137 168 
0.00611752 -0.00280635 0.0232228 0 0 69 
0.00536269 -0.00277729 0.0220181 0 0 85 
0.00460792 -0.00274821 0.0208133 14 0 75 
0.00385308 -0.00271915 0.0196086 4 0 54 
0.00309831 -0.00269008 0.0184039 21 0 48 
0.00234348 -0.00266102 0.0171992 15 0 48 
0.0015887 -0.00263195 0.0159944 10 0 41 
0.000833869 -0.00260288 0.0147897 20 0 37 
7.90358e-05 -0.00257382 0.013585 20 0 23 
-0.000675738 -0.00254475 0.0123802 19 0 21 
-0.00143057 -0.00251568 0.0111755 37 0 16 
-0.000555515 -0.00264436 0.00879478 11 0 22 
0.000315785 -0.00277289 0.0064081 18 5 85 
0.00118339 -0.00290129 0.00401545 21 6 117 
0.000423014 -0.00287201 0.00280178 10 0 123 
0.00128502 -0.00300019 0.000400186 8 1 132 
0.000522792 -0.00297084 -0.000816464 2 18 132 
-0.000239432 -0.00294148 -0.002033 9 16 124 
-0.00100172 -0.00291213 -0.00324965 9 10 136 
-0.00176394 -0.00288277 -0.00446618 11 0 151 
-0.00252622 -0.00285342 -0.00568283 7 0 150 
-0.00328845 -0.00282406 -0.00689948 16 0 150 
-0.00405073 -0.00279472 -0.00811613 8 0 151 
-0.00481296 -0.00276536 -0.00933278 15 0 152 
-0.00396955 -0.00289282 -0.0117639 12 0 144 
-0.00473368 -0.00286339 -0.0129836 22 7 134 
-0.00549781 -0.00283397 -0.0142032 60 25 124 
-0.0046618 -0.00296114 -0.0166463 77 51 116 
-0.00542778 -0.00293165 -0.0178689 77 84 124 
-0.00459743 -0.0030586 -0.020321 99 91 115 
-0.00536525 -0.00302903 -0.0215465 74 69 97 
-0.00454044 -0.00315578 -0.0240075 69 65 91 
-0.00531012 -0.00312614 -0.025236 69 67 88 
-0.00449091 -0.00325268 -0.0277058 68 66 85 
-0.00526249 -0.00322296 -0.0289373 68 60 89 
-0.00444889 -0.00334928 -0.0314161 69 61 92 
-0.00522232 -0.00331949 -0.0326506 74 56 104 
-0.00599575 -0.00328971 -0.033885 55 35 109 
-0.00676918 -0.00325993 -0.0351194 57 28 106 
-0.00754261 -0.00323015 -0.0363539 110 108 154 
0.0162649 -0.00481436 0.0317851 234 241 247 
0.0138412 -0.00462254 0.0316942 226 230 234 
0.0130845 -0.0045934 0.0304865 228 231 235 
0.0123278 -0.00456426 0.0292789 255 255 255 
0.0115712 -0.00453512 0.028071 253 254 255 
0.0108145 -0.00450598 0.0268635 187 191 193 
0.0100579 -0.00447685 0.0256557 161 174 177 
0.00764704 -0.00428553 0.0255855 158 174 187 
0.00689226 -0.00425646 0.0243808 128 136 167 
0.00613743 -0.00422739 0.0231761 0 0 55 
0.00538266 -0.00419833 0.0219713 0 0 65 
0.00462782 -0.00416926 0.0207666 8 0 70 
0.00387305 -0.00414019 0.0195619 10 0 59 
0.00311822 -0.00411113 0.0183572 28 0 55 
0.00236338 -0.00408206 0.0171524 19 0 53 
0.00160861 -0.00405299 0.0159477 13 0 43 
0.000853777 -0.00402392 0.014743 17 0 35 
9.90033e-05 -0.00399486 0.0135382 23 0 27 
-0.00065583 -0.00396579 0.0123335 16 0 18 
-0.0014106 -0.00393672 0.0111288 35 0 14 
-0.000535488 -0.00406891 0.00874794 0 0 9 
0.000335813 -0.00420094 0.00636113 2 0 68 
0.00120348 -0.00433283 0.00396836 9 0 106 
0.000443101 -0.00430355 0.00275469 11 0 124 
-0.000317276 -0.00427427 0.00154102 3 0 126 
0.000542939 -0.00440589 -0.000863671 0 15 128 
-0.000219345 -0.00437654 -0.00208032 9 16 124 
-0.000981569 -0.00434718 -0.00329685 7 8 133 
-0.00174385 -0.00431783 -0.0045135 15 2 154 
-0.00250608 -0.00428847 -0.00573003 8 0 151 
-0.00326836 -0.00425912 -0.00694668 17 0 151 
-0.00403059 -0.00422978 -0.00816333 8 0 151 
-0.00479287 -0.00420042 -0.00937998 16 0 153 
-0.00555509 -0.00417107 -0.0105965 18 0 150 
-0.00471348 -0.00430195 -0.0130309 22 7 134 
-0.00547761 -0.00427253 -0.0142504 71 35 134 
-0.00624174 -0.00424311 -0.01547 76 49 115 
-0.00540757 -0.00437372 -0.0179163 53 60 100 
-0.00617355 -0.00434422 -0.0191389 68 59 83 
-0.00534499 -0.00447461 -0.021594 66 61 89 
-0.00452012 -0.00460487 -0.0240552 66 62 87 
-0.003699 -0.00473497 -0.0265222 66 63 84 
-0.00447053 -0.00470526 -0.0277537 63 62 80 
-0.00524211 -0.00467554 -0.0289851 70 63 91 
-0.00601369 -0.00464583 -0.0302166 76 68 99 
-0.00520194 -0.00477558 -0.0326985 78 59 108 
-0.00597531 -0.00474579 -0.0339329 60 40 114 
-0.00674874 -0.00471602 -0.0351673 54 26 104 
-0.00752217 -0.00468623 -0.0364018 107 105 151 
0.0146178 -0.00607622 0.032855 234 239 245 
0.0138612 -0.00604708 0.0316473 216 228 233 
0.0131045 -0.00601795 0.0304396 231 232 234 
0.0123478 -0.00598881 0.0292319 255 255 255 
0.0115911 -0.00595967 0.0280242 255 255 255 
0.0108345 -0.00593053 0.0268165 188 200 198 
0.00842178 -0.00573564 0.0267435 176 175 177 
0.00766701 -0.00570657 0.0255388 173 144 151 
0.00691217 -0.0056775 0.0243341 130 126 138 
0.00615734 -0.00564843 0.0231293 0 0 23 
0.00540257 -0.00561937 0.0219246 0 0 17 
0.00464773 -0.0055903 0.0207199 4 2 50 
0.00389296 -0.00556123 0.0195152 5 0 61 
0.00149512 -0.00536691 0.0194658 3 0 53 
0.000742197 -0.00533791 0.0182642 4 2 50 
0.00162852 -0.00547403 0.015901 0 0 42 
0.000873744 -0.00544497 0.0146962 1 0 35 
0.000118911 -0.0054159 0.0134915 6 0 23 
-0.000635922 -0.00538683 0.0122868 8 0 18 
-0.0013907 -0.00535776 0.0110821 6 0 11 
-0.000515521 -0.00549345 0.00870097 0 0 3 
-0.0012722 -0.00546432 0.00749338 25 1 58 
-0.000402689 -0.00559979 0.00510347 16 0 83 
0.000463188 -0.00573512 0.0027076 24 0 95 
-0.000297248 -0.00570584 0.00149393 0 0 117 
-0.00105762 -0.00567655 0.000280261 0 11 127 
-0.000199199 -0.00581159 -0.00212753 12 10 131 
-0.000961483 -0.00578225 -0.00334418 8 3 138 
-0.00172371 -0.0057529 -0.00456071 12 0 145 
-0.00248599 -0.00572354 -0.00577736 8 0 148 
-0.00324821 -0.00569419 -0.00699389 15 0 149 
-0.0040105 -0.00566483 -0.00821054 16 0 150 
-0.00477272 -0.00563548 -0.00942719 25 0 151 
-0.00553501 -0.00560612 -0.0106438 26 0 149 
-0.00629723 -0.00557677 -0.0118604 16 0 150 
-0.00705951 -0.00554741 -0.013077 30 35 155 
-0.00622153 -0.00568168 -0.0155174 45 42 145 
-0.00698566 -0.00565225 -0.016737 74 39 136 
-0.00615335 -0.00578628 -0.0191864 72 39 122 
-0.00691932 -0.00575679 -0.020409 71 49 114 
-0.00609255 -0.00589062 -0.0228671 73 55 101 
-0.00526953 -0.00602431 -0.0253314 75 58 102 
-0.0044502 -0.00615784 -0.0278015 71 57 105 
-0.00522172 -0.00612813 -0.0290329 73 55 110 
-0.00599331 -0.00609842 -0.0302644 73 61 118 
-0.00518149 -0.00623167 -0.0327464 77 50 122 
-0.00595492 -0.00620188 -0.0339808 58 37 120 
-0.00672835 -0.00617211 -0.0352153 49 23 119 
-0.00750178 -0.00614232 -0.0364497 97 94 163 
0.0146378 -0.00750077 0.0328082 219 223 229 
0.0138811 -0.00747163 0.0316005 185 197 202 
0.0131245 -0.00744249 0.0303928 205 207 209 
0.0123678 -0.00741335 0.0291851 255 255 255 
0.0116111 -0.00738421 0.0279773 255 255 255 
0.0108545 -0.00735508 0.0267696 195 207 205 
0.00844169 -0.00715667 0.0266968 178 177 180 
0.00768691 -0.00712761 0.0254921 125 96 103 
0.00693208 -0.00709854 0.0242873 54 49 62 
0.00452679 -0.00690042 0.0242263 2 11 44 
0.00377387 -0.00687143 0.0230244 46 48 84 
0.0046677 -0.00701134 0.0206732 61 59 107 
0.00226796 -0.00681343 0.0206209 41 34 97 
0.00151503 -0.00678444 0.0194192 1 0 51 
0.000762045 -0.00675545 0.0182174 0 0 45 
0.00164843 -0.00689507 0.0158542 0 0 42 
0.000893652 -0.006866 0.0146495 1 0 35 
0.000138819 -0.00683694 0.0134448 6 0 23 
-0.000615954 -0.00680787 0.0122401 8 0 18 
-0.00137079 -0.0067788 0.0110353 6 0 11 
-0.000495553 -0.006918 0.00865412 0 0 4 
-0.00125223 -0.00688886 0.00744641 26 3 59 
-0.00200891 -0.00685972 0.0062387 16 0 83 
-0.00114119 -0.00699863 0.00384569 21 0 91 
-0.000277162 -0.00713739 0.00144684 0 0 111 
-0.00103754 -0.0071081 0.000233173 0 8 125 
-0.00179797 -0.00707882 -0.000980496 12 10 131 
-0.00255835 -0.00704954 -0.00219405 2 0 133 
-0.00170362 -0.00718795 -0.00460792 8 0 141 
-0.00246584 -0.0071586 -0.00582457 6 0 146 
-0.00322813 -0.00712924 -0.00704122 12 0 146 
-0.00399035 -0.0070999 -0.00825775 13 0 146 
-0.00475264 -0.00707055 -0.0094744 24 0 150 
-0.00551486 -0.00704119 -0.010691 25 0 148 
-0.00627714 -0.00701183 -0.0119077 13 0 146 
-0.00703937 -0.00698248 -0.0131242 34 39 159 
-0.00620139 -0.00712023 -0.0155648 56 53 156 
-0.00696552 -0.0070908 -0.0167843 90 56 152 
-0.00613314 -0.00722836 -0.0192338 90 58 140 
-0.00689906 -0.00719886 -0.0204564 80 58 123 
-0.00607228 -0.00733619 -0.0229148 81 63 110 
-0.0052492 -0.00747338 -0.0253791 87 70 114 
-0.00601888 -0.00744374 -0.0266075 86 73 120 
-0.0052014 -0.00758071 -0.0290807 79 60 116 
-0.00597292 -0.007551 -0.0303122 72 60 116 
-0.0067445 -0.00752128 -0.0315437 78 51 124 
-0.00751609 -0.00749157 -0.0327752 59 38 121 
-0.00670791 -0.00762819 -0.0352632 49 23 119 
-0.00748134 -0.0075984 -0.0364977 90 87 156 
0.0146578 -0.00892532 0.0327612 203 229 232 
0.0139011 -0.00889618 0.0315536 178 204 202 
0.0131444 -0.00886704 0.0303458 186 206 207 
0.0123878 -0.0088379 0.0291382 255 255 255 
0.0116311 -0.00880877 0.0279304 255 255 255 
0.00921643 -0.00860679 0.0278547 196 210 210 
0.00846165 -0.00857772 0.02665 172 178 181 
0.00605255 -0.00837595 0.0265831 102 0 0 
0.00529963 -0.00834696 0.0253813 0 0 0 
0.0045467 -0.00831796 0.0241796 48 87 92 
0.00379372 -0.00828897 0.0229778 101 96 104 
0.00304079 -0.00825997 0.0217761 67 65 84 
0.00228786 -0.00823097 0.0205743 50 48 73 
0.00153488 -0.00820198 0.0193726 0 0 48 
0.000781953 -0.00817299 0.0181708 0 0 44 
2.90275e-05 -0.00814399 0.0169691 0 0 41 
-0.000723958 -0.008115 0.0157673 9 0 35 
-0.00147688 -0.008086 0.0145656 10 0 15 
-0.000596046 -0.00822892 0.0121932 0 0 11 
-0.00135082 -0.00819985 0.0109885 0 0 9 
-0.000475585 -0.00834255 0.00860727 0 0 9 
-0.00123227 -0.00831341 0.00739956 5 0 61 
-0.00198895 -0.00828427 0.00619185 11 0 86 
-0.00112116 -0.00842668 0.00379872 12 0 91 
-0.00187969 -0.00839746 0.00258803 0 0 98 
-0.00263822 -0.00836826 0.00137746 0 6 125 
-0.00177789 -0.00851038 -0.00102758 4 3 133 
-0.00253826 -0.0084811 -0.00224125 5 0 136 
-0.00329864 -0.00845182 -0.0034548 10 0 141 
-0.00405908 -0.00842253 -0.00466859 12 0 144 
-0.00481945 -0.00839325 -0.00588214 17 0 146 
-0.00557983 -0.00836397 -0.00709581 17 0 146 
-0.00634021 -0.00833469 -0.00830948 27 0 147 
-0.00549477 -0.00847625 -0.0107383 31 0 149 
-0.006257 -0.00844689 -0.0119549 23 0 150 
-0.00701922 -0.00841754 -0.0131716 45 31 160 
-0.00618124 -0.00855881 -0.0156121 45 47 163 
-0.00694531 -0.00852938 -0.0168318 37 76 175 
-0.00770944 -0.00849995 -0.0180513 76 76 176 
-0.00687885 -0.00864093 -0.0205039 46 72 157 
-0.00764483 -0.00861143 -0.0217264 49 53 134 
-0.00681984 -0.0087522 -0.0241879 65 57 136 
-0.00599855 -0.00889282 -0.0266553 72 65 132 
-0.00676829 -0.00886318 -0.0278837 67 58 137 
-0.0059526 -0.00900358 -0.03036 70 53 138 
-0.00672412 -0.00897387 -0.0315915 71 47 145 
-0.0074957 -0.00894416 -0.032823 61 39 145 
-0.00826722 -0.00891444 -0.0340545 38 13 135 
-0.00903881 -0.00888474 -0.0352859 76 73 162 
0.0139211 -0.0103207 0.0315067 209 235 233 
0.0131644 -0.0102916 0.0302989 218 238 240 
0.0124077 -0.0102624 0.0290912 255 255 255 
0.0116511 -0.0102333 0.0278835 255 255 255 
0.0092364 -0.0100278 0.027808 200 213 213 
0.00848156 -0.00999876 0.0266032 159 165 168 
0.00607246 -0.00979349 0.0265365 93 0 0 
0.00531948 -0.0097645 0.0253347 1 4 8 
0.00456655 -0.0097355 0.024133 81 121 126 
0.00381362 -0.00970651 0.0229312 104 100 107 
0.00141382 -0.0095016 0.0228794 51 49 67 
0.000662684 -0.00947268 0.0216806 28 26 51 
0.00155479 -0.00961952 0.0193259 0 0 46 
0.000801802 -0.00959053 0.0181242 0 0 43 
4.88758e-05 -0.00956153 0.0169224 0 0 40 
-0.00070405 -0.00953254 0.0157206 7 0 33 
-0.00145704 -0.00950354 0.0145189 10 0 15 
-0.000576138 -0.00964996 0.0121465 0 0 8 
-0.00133091 -0.00962089 0.0109417 0 0 9 
-0.000455618 -0.0097671 0.0085603 0 0 13 
-0.0012123 -0.00973796 0.00735271 5 0 61 
-0.00196898 -0.00970882 0.006145 14 0 88 
-0.00110114 -0.00985474 0.00375175 12 0 91 
-0.00185966 -0.00982552 0.00254107 0 0 97 
-0.00261819 -0.00979631 0.00133038 0 5 124 
-0.0017578 -0.00994194 -0.00107467 11 10 140 
-0.00251818 -0.00991266 -0.00228834 6 0 137 
-0.00327855 -0.00988338 -0.00350201 9 0 140 
-0.00403899 -0.0098541 -0.00471556 11 0 143 
-0.00479937 -0.00982482 -0.00592923 14 0 144 
-0.00555974 -0.00979554 -0.0071429 17 0 146 
-0.00632018 -0.00976625 -0.00835657 25 0 145 
-0.00547463 -0.00991132 -0.0107855 30 0 148 
-0.00623685 -0.00988196 -0.0120021 20 0 146 
-0.00699914 -0.00985261 -0.0132188 35 21 151 
-0.00616103 -0.00999737 -0.0156595 39 41 157 
-0.00692517 -0.00996794 -0.016879 71 110 209 
-0.0076893 -0.00993852 -0.0180986 109 110 210 
-0.00685865 -0.010083 -0.0205513 56 82 167 
-0.00762463 -0.0100535 -0.0217739 67 72 153 
-0.00679958 -0.0101978 -0.0242354 65 57 136 
-0.00597823 -0.0103419 -0.0267029 65 58 125 
-0.00674796 -0.0103122 -0.0279315 68 59 138 
-0.00593221 -0.0104562 -0.0304078 77 60 145 
-0.00670379 -0.0104265 -0.0316393 80 57 154 
-0.00747532 -0.0103967 -0.0328708 73 51 157 
-0.0082469 -0.010367 -0.0341023 36 11 133 
-0.00901842 -0.0103373 -0.0353338 64 61 151 
0.013941 -0.0117453 0.0314598 241 234 235 
0.0131844 -0.0117161 0.0302521 249 247 245 
0.0124277 -0.011687 0.0290444 255 255 255 
0.0100111 -0.0114779 0.0289658 255 255 255 
0.0092563 -0.0114489 0.0277611 200 213 213 
0.00850147 -0.0114198 0.0265564 149 154 158 
0.00609231 -0.011211 0.0264899 0 0 0 
0.00533938 -0.011182 0.025288 0 0 19 
0.00293577 -0.0109735 0.0252304 46 92 110 
0.00218469 -0.0109446 0.0240315 89 95 103 
0.00143361 -0.0109156 0.0228328 0 46 71 
0.000682533 -0.0108867 0.021634 0 0 42 
-6.85453e-05 -0.0108578 0.0204352 9 0 35 
-0.000819623 -0.0108289 0.0192364 0 0 34 
6.87242e-05 -0.0109791 0.0168757 0 0 25 
-0.000684202 -0.0109501 0.015674 5 0 16 
-0.00143713 -0.0109211 0.0144722 2 0 14 
-0.000556171 -0.011071 0.0120996 0 0 2 
-0.001311 -0.0110419 0.0108949 10 0 31 
-0.00043565 -0.0111916 0.00851345 0 0 41 
-0.00119233 -0.0111625 0.00730574 10 0 69 
-0.00194901 -0.0111334 0.00609803 19 0 84 
-0.00108111 -0.0112828 0.00370467 14 0 97 
-0.00183964 -0.0112536 0.00249398 0 0 112 
-0.00259817 -0.0112244 0.00128341 0 9 129 
-0.00335675 -0.0111952 7.27177e-05 5 9 132 
-0.00411522 -0.011166 -0.00113797 1 0 137 
-0.00487381 -0.0111367 -0.00234866 1 0 140 
-0.0040189 -0.0112857 -0.00476277 8 0 142 
-0.00477928 -0.0112564 -0.00597632 11 0 144 
-0.00553972 -0.0112271 -0.00718999 12 0 145 
-0.00630009 -0.0111978 -0.00840366 24 0 147 
-0.00545448 -0.0113464 -0.0108327 30 0 148 
-0.00621676 -0.011317 -0.0120493 8 0 148 
-0.00697899 -0.0112877 -0.013266 24 12 155 
-0.00614089 -0.0114359 -0.0157068 0 40 161 
-0.00690502 -0.0114065 -0.0169264 51 110 192 
-0.00766909 -0.0113771 -0.0181459 80 138 201 
-0.00683844 -0.0115251 -0.0205988 0 115 188 
-0.00760442 -0.0114956 -0.0218214 15 83 170 
-0.00677931 -0.0116433 -0.024283 58 72 159 
-0.00754714 -0.0116138 -0.0255085 50 45 142 
-0.00672764 -0.0117613 -0.0279791 69 53 147 
-0.00749731 -0.0117317 -0.0292076 71 52 148 
-0.00668341 -0.011879 -0.0316871 62 50 159 
-0.00745493 -0.0118493 -0.0329186 62 45 164 
-0.00822651 -0.0118196 -0.0341501 36 0 148 
-0.0089981 -0.0117899 -0.0353816 55 41 157 
0.0132043 -0.0131407 0.0302051 226 224 222 
0.0124477 -0.0131116 0.0289975 255 255 255 
0.010031 -0.012899 0.0289191 255 255 255 
0.00927621 -0.0128699 0.0277144 197 211 211 
0.00852144 -0.0128409 0.0265096 144 150 153 
0.00611222 -0.0126286 0.0264431 0 0 0 
0.00535923 -0.0125996 0.0252414 0 0 13 
0.00295562 -0.0123875 0.0251838 0 13 30 
0.00220454 -0.0123586 0.023985 8 15 23 
0.00145346 -0.0123297 0.0227863 0 7 31 
0.000702381 -0.0123007 0.0215875 0 0 39 
-4.8697e-05 -0.0122718 0.0203887 5 0 30 
-0.000799775 -0.0122429 0.01919 0 0 29 
-0.00155091 -0.012214 0.0179912 0 0 22 
-0.00230199 -0.012185 0.0167923 3 0 15 
-0.00141728 -0.0123386 0.0144256 0 0 10 
-0.000536263 -0.012492 0.0120529 0 0 2 
-0.0012911 -0.012463 0.0108482 13 0 34 
-0.000415683 -0.0126162 0.0084666 2 0 46 
-0.00117236 -0.0125871 0.00725889 11 0 70 
-0.00192899 -0.0125579 0.00605118 15 0 79 
-0.00106108 -0.0127108 0.0036577 15 0 98 
-0.00181961 -0.0126816 0.00244701 0 0 115 
-0.00257814 -0.0126524 0.00123632 0 11 132 
-0.00333673 -0.0126232 2.57492e-05 5 9 132 
-0.00409526 -0.012594 -0.00118494 0 0 136 
-0.00485379 -0.0125648 -0.00239563 1 0 140 
-0.00561231 -0.0125356 -0.00360632 9 0 143 
-0.00475919 -0.0126879 -0.00602353 12 0 145 
-0.00551963 -0.0126586 -0.00723708 13 0 147 
-0.00628 -0.0126294 -0.00845075 24 0 147 
-0.00543439 -0.0127814 -0.0108799 30 0 148 
-0.00619662 -0.0127521 -0.0120965 9 0 149 
-0.0069589 -0.0127227 -0.0133132 21 9 153 
-0.00612068 -0.0128745 -0.0157541 0 33 154 
-0.00688481 -0.0128451 -0.0169737 46 105 186 
-0.00764894 -0.0128157 -0.0181934 76 134 198 
-0.00681823 -0.0129671 -0.0206462 10 140 212 
-0.00758415 -0.0129376 -0.0218688 52 120 207 
-0.00675905 -0.0130889 -0.0243306 71 85 172 
-0.00752687 -0.0130594 -0.0255561 64 59 156 
-0.00670731 -0.0132104 -0.0280268 62 46 140 
-0.00747699 -0.0131808 -0.0292553 64 45 141 
-0.00824672 -0.0131511 -0.0304838 59 48 157 
-0.00743461 -0.0133019 -0.0329664 61 44 163 
-0.00820613 -0.0132722 -0.0341979 40 4 153 
-0.00897771 -0.0132425 -0.0354294 51 37 153 
0.0124677 -0.0145361 0.0289506 254 255 255 
0.010051 -0.01432 0.0288724 255 255 255 
0.00929612 -0.014291 0.0276676 194 223 225 
0.00854135 -0.0142619 0.0264629 127 150 163 
0.00613207 -0.0140461 0.0263965 0 0 0 
0.00537914 -0.0140171 0.0251948 0 0 0 
0.00297546 -0.0138015 0.0251373 0 0 16 
0.000575483 -0.0135861 0.0250858 0 0 34 
-0.000173748 -0.0135573 0.0238899 1 0 35 
-0.000922978 -0.0135284 0.0226941 9 0 35 
-2.89083e-05 -0.0136858 0.0203421 1 0 19 
-0.000779986 -0.0136569 0.0191433 0 0 11 
-0.00153106 -0.013628 0.0179446 3 0 15 
-0.00228214 -0.0135991 0.0167458 0 0 11 
-0.00303322 -0.0135702 0.015547 0 0 16 
-0.00215036 -0.0137272 0.0131772 0 0 28 
-0.00127113 -0.013884 0.0108014 4 0 54 
-0.000395715 -0.0140408 0.00841963 9 0 77 
-0.0011524 -0.0140116 0.00721204 13 0 81 
-0.00190902 -0.0139825 0.00600433 3 0 85 
-0.0026657 -0.0139533 0.00479662 4 0 109 
-0.00342238 -0.0139242 0.00358891 0 0 125 
-0.00417906 -0.0138951 0.00238121 0 0 132 
-0.00493568 -0.0138659 0.0011735 6 2 130 
-0.00407523 -0.0140221 -0.00123203 8 0 136 
-0.00483376 -0.0139928 -0.0024426 6 0 140 
-0.00559229 -0.0139636 -0.00365329 8 0 142 
-0.00635082 -0.0139344 -0.00486398 12 0 142 
-0.00549954 -0.0140902 -0.00728428 13 0 145 
-0.00625992 -0.0140609 -0.00849783 18 0 147 
-0.00541425 -0.0142165 -0.0109272 21 0 148 
-0.00617653 -0.0141871 -0.0121437 8 0 152 
-0.00693876 -0.0141578 -0.0133604 20 0 152 
-0.00770104 -0.0141284 -0.014577 2 20 154 
-0.00686467 -0.0142836 -0.0170211 74 102 181 
-0.00762874 -0.0142542 -0.0182406 86 129 186 
-0.00839287 -0.0142248 -0.0194602 57 139 201 
-0.00756395 -0.0143797 -0.0219163 80 138 201 
-0.00832993 -0.0143502 -0.0231388 24 117 193 
-0.00750661 -0.0145049 -0.0256037 36 77 170 
-0.00668699 -0.0146595 -0.0280745 45 53 152 
-0.00745672 -0.0146299 -0.029303 43 45 140 
-0.00822639 -0.0146002 -0.0305315 58 51 146 
-0.00741422 -0.0147545 -0.0330142 59 51 150 
-0.0081858 -0.0147248 -0.0342457 35 0 140 
-0.00895733 -0.0146951 -0.0354772 46 31 156 
0.0124876 -0.0159606 0.0289037 255 255 255 
0.0100709 -0.0157411 0.0288256 255 255 255 
0.00931609 -0.015712 0.0276209 197 226 228 
0.00856125 -0.0156829 0.0264162 145 168 180 
0.00615197 -0.0154637 0.0263499 0 0 0 
0.00374633 -0.0152445 0.0262896 0 0 0 
0.0013445 -0.0150255 0.0262351 0 0 1 
0.000595272 -0.0149967 0.0250393 0 0 27 
-0.000153959 -0.0149678 0.0238435 0 0 31 
-0.000903189 -0.0149389 0.0226477 7 0 33 
-0.00165242 -0.0149101 0.0214518 0 0 16 
-0.00240165 -0.0148812 0.020256 0 0 7 
-0.00315088 -0.0148524 0.0190603 0 0 7 
-0.00390005 -0.0148235 0.0178643 0 0 8 
-0.00301343 -0.0149842 0.0155004 0 0 19 
-0.00213045 -0.0151447 0.0131305 0 0 38 
-0.00288337 -0.0151157 0.0119287 14 0 63 
-0.00200605 -0.015276 0.00954998 9 0 77 
-0.00276083 -0.0152469 0.00834525 13 0 81 
-0.00188905 -0.015407 0.00595748 0 0 81 
-0.00264573 -0.0153779 0.00474966 10 0 115 
-0.00340241 -0.0153487 0.00354207 0 0 128 
-0.00415909 -0.0153196 0.00233436 0 0 134 
-0.00491571 -0.0152905 0.00112665 8 3 131 
-0.0040552 -0.0154501 -0.001279 8 0 136 
-0.00481373 -0.0154209 -0.00248969 5 0 139 
-0.00557226 -0.0153917 -0.00370038 7 0 140 
-0.00633079 -0.0153625 -0.00491095 13 0 143 
-0.00547945 -0.0155218 -0.00733137 18 0 150 
-0.00623983 -0.0154925 -0.00854504 29 5 159 
-0.00700027 -0.0154632 -0.00975859 31 0 158 
-0.00615638 -0.0156222 -0.0121909 17 0 161 
-0.00691867 -0.0155928 -0.0134076 29 10 161 
-0.00768089 -0.0155635 -0.0146242 5 24 158 
-0.00844318 -0.0155342 -0.0158409 65 92 172 
-0.00760859 -0.0156928 -0.018288 78 121 177 
-0.00837272 -0.0156634 -0.0195075 76 157 219 
-0.0091368 -0.0156339 -0.0207272 98 156 220 
-0.00830972 -0.0157923 -0.0231863 36 129 205 
-0.0090757 -0.0157628 -0.0244088 55 97 190 
-0.00825417 -0.0159209 -0.0268768 53 61 160 
-0.00743639 -0.0160789 -0.0293507 49 51 146 
-0.00820607 -0.0160493 -0.0305792 50 43 138 
-0.00897574 -0.0160197 -0.0318077 47 38 137 
-0.00974548 -0.01599 -0.0330362 39 3 143 
-0.008937 -0.0161477 -0.035525 48 33 158 
0.0125076 -0.0173852 0.0288569 255 255 255 
0.0100908 -0.0171621 0.0287788 255 255 255 
0.00933599 -0.0171331 0.0275741 209 221 226 
0.00692475 -0.0169102 0.0275049 155 186 202 
0.00451726 -0.0166875 0.0274419 95 3 39 
0.00376618 -0.0166585 0.026243 0 0 34 
0.00136423 -0.016436 0.0261887 0 0 27 
0.00061506 -0.0164072 0.0249928 0 0 32 
-0.00013417 -0.0163783 0.0237972 0 0 37 
-0.0008834 -0.0163495 0.0226012 4 0 33 
-0.00163263 -0.0163206 0.0214055 10 0 31 
-0.00238186 -0.0162918 0.0202097 5 0 15 
-0.00313109 -0.0162629 0.0190138 11 0 35 
-0.00388032 -0.0162341 0.017818 0 0 49 
-0.00299358 -0.0163982 0.0154539 12 0 58 
-0.0021106 -0.0165622 0.0130838 11 0 78 
-0.00286353 -0.0165333 0.0118821 9 0 83 
-0.00198609 -0.0166971 0.00950313 0 0 89 
-0.00274092 -0.016668 0.0082984 12 0 99 
-0.00186908 -0.0168316 0.00591052 0 0 114 
-0.00262576 -0.0168024 0.00470281 0 0 126 
-0.00338244 -0.0167733 0.0034951 0 0 141 
-0.00413913 -0.0167441 0.00228751 0 0 137 
-0.00489575 -0.016715 0.00107968 16 7 127 
-0.00565243 -0.0166859 -0.000127912 6 0 133 
-0.00640911 -0.0166567 -0.00133574 5 0 137 
-0.00555223 -0.0168197 -0.00374734 5 0 139 
-0.00631076 -0.0167905 -0.00495803 1 0 141 
-0.00545937 -0.0169533 -0.00737846 5 0 131 
-0.0062198 -0.016924 -0.00859213 19 17 124 
-0.00698018 -0.0168947 -0.0098058 20 18 125 
-0.00613624 -0.0170573 -0.0122383 26 17 125 
-0.00689852 -0.0170279 -0.0134548 34 8 131 
-0.00766075 -0.0169985 -0.0146714 36 29 151 
-0.00842303 -0.0169692 -0.0158881 72 77 163 
-0.00758845 -0.0171314 -0.0183353 46 107 177 
-0.00835252 -0.0171019 -0.019555 45 157 209 
-0.00911665 -0.0170725 -0.0207745 81 165 206 
-0.00828952 -0.0172344 -0.0232338 41 144 204 
-0.0090555 -0.0172049 -0.0244563 36 117 193 
-0.0082339 -0.0173665 -0.0269244 10 84 174 
-0.00900173 -0.0173369 -0.0281499 36 63 159 
-0.00818574 -0.0174984 -0.0306269 60 43 142 
-0.00895548 -0.0174687 -0.0318553 52 33 130 
-0.00972515 -0.0174391 -0.0330839 46 0 124 
-0.00891662 -0.0176002 -0.0355728 46 32 141 
0.0125276 -0.0188097 0.0288099 255 255 255 
0.0101107 -0.0185832 0.0287321 255 255 255 
0.0093559 -0.0185541 0.0275273 206 218 222 
0.00694466 -0.0183277 0.0274583 154 185 201 
0.00453711 -0.0181015 0.0273952 235 143 179 
0.00378603 -0.0180726 0.0261965 105 108 160 
0.00138402 -0.0178466 0.0261422 11 14 59 
0.000634789 -0.0178177 0.0249465 0 0 36 
-0.000114381 -0.0177889 0.0237507 0 0 34 
-0.000863612 -0.01776 0.0225549 0 0 28 
-0.00161284 -0.0177312 0.0213591 14 0 35 
-0.00236207 -0.0177023 0.0201632 21 6 31 
-0.0031113 -0.0176735 0.0189674 27 4 51 
-0.00222266 -0.0178412 0.0166062 13 3 66 
-0.00297374 -0.0178123 0.0154074 25 0 71 
-0.00209069 -0.0179798 0.0130372 19 0 86 
-0.0012114 -0.0181472 0.0106611 13 0 86 
-0.00196618 -0.0181181 0.0094564 0 0 91 
-0.00272101 -0.018089 0.00825167 19 0 106 
-0.00184911 -0.0182561 0.00586367 2 0 123 
-0.0026058 -0.018227 0.00465596 2 0 130 
-0.00336248 -0.0181978 0.00344825 0 0 141 
-0.0041191 -0.0181687 0.00224054 0 0 134 
-0.00487578 -0.0181396 0.00103283 13 4 124 
-0.00563246 -0.0181104 -0.00017488 8 0 135 
-0.00638914 -0.0180813 -0.00138259 6 0 138 
-0.00553221 -0.0182478 -0.00379431 4 0 138 
-0.00629073 -0.0182186 -0.005005 0 0 138 
-0.00704926 -0.0181894 -0.00621569 0 0 113 
-0.00780779 -0.0181602 -0.00742638 0 0 89 
-0.00696009 -0.0183263 -0.00985289 0 0 87 
-0.00772047 -0.018297 -0.0110666 0 0 83 
-0.00848091 -0.0182677 -0.0122801 16 0 113 
-0.00764066 -0.0184336 -0.0147187 5 0 120 
-0.00840288 -0.0184043 -0.0159353 52 58 143 
-0.00916517 -0.0183749 -0.017152 26 86 156 
-0.00833237 -0.0185405 -0.0196023 45 157 209 
-0.0090965 -0.0185111 -0.0208219 80 164 205 
-0.00826931 -0.0186764 -0.0232812 52 154 215 
-0.00903523 -0.0186469 -0.0245037 57 138 214 
-0.00821364 -0.0188121 -0.0269719 27 101 192 
-0.00898147 -0.0187825 -0.0281975 56 83 179 
-0.00816542 -0.0189475 -0.0306746 57 40 138 
-0.00893515 -0.0189178 -0.0319031 48 30 126 
-0.00812465 -0.0190825 -0.0343891 44 0 123 
-0.00889623 -0.0190528 -0.0356206 35 20 130 
0.0125476 -0.0202343 0.0287631 254 254 254 
0.0101306 -0.0200042 0.0286852 255 255 255 
0.00937587 -0.0199751 0.0274805 211 222 224 
0.0069645 -0.0197453 0.0274116 188 195 200 
0.00455689 -0.0195155 0.0273488 171 173 187 
0.00215304 -0.019286 0.0272917 166 165 190 
0.00140381 -0.0192571 0.0260959 57 52 121 
0.000654578 -0.0192283 0.0249001 0 0 101 
-9.46522e-05 -0.0191994 0.0237042 0 0 85 
-0.000843823 -0.0191705 0.0225084 0 0 79 
-0.00159305 -0.0191417 0.0213126 0 0 82 
-0.00234228 -0.0191128 0.0201168 3 0 78 
-0.00145173 -0.0192841 0.0177585 0 0 84 
-0.00220281 -0.0192552 0.0165596 0 0 90 
-0.00295395 -0.0192263 0.0153608 0 0 93 
-0.00207084 -0.0193973 0.0129906 0 0 97 
-0.00119144 -0.0195682 0.0106143 0 0 102 
-0.00194627 -0.0195391 0.00940955 6 0 108 
-0.00270104 -0.0195101 0.00820482 3 0 118 
-0.00345588 -0.019481 0.00700009 9 0 129 
-0.00258583 -0.0196515 0.00460899 0 0 134 
-0.00334245 -0.0196224 0.0034014 0 0 135 
-0.00409913 -0.0195932 0.00219369 3 0 132 
-0.00485581 -0.0195641 0.00098598 9 2 126 
-0.00561249 -0.019535 -0.000221729 6 2 130 
-0.00636917 -0.0195058 -0.00142944 3 0 137 
-0.00551218 -0.0196758 -0.00384128 0 0 120 
-0.00627071 -0.0196466 -0.00505197 2 0 103 
-0.00702924 -0.0196174 -0.00626266 32 0 79 
-0.00778776 -0.0195882 -0.00747335 4 0 59 
-0.00694001 -0.0197579 -0.00989997 0 0 49 
-0.00770044 -0.0197286 -0.0111136 0 0 53 
-0.00846082 -0.0196993 -0.0123273 0 14 100 
-0.00762051 -0.0198687 -0.0147659 0 2 128 
-0.0083828 -0.0198393 -0.0159825 62 56 148 
-0.00914502 -0.01981 -0.0171992 33 64 154 
-0.00831223 -0.0199791 -0.0196496 76 138 191 
-0.0090763 -0.0199496 -0.0208691 109 155 195 
-0.00824904 -0.0201185 -0.0233287 81 159 206 
-0.00901502 -0.020089 -0.0245512 92 157 206 
-0.00819337 -0.0202577 -0.0270195 22 126 196 
-0.0089612 -0.0202281 -0.028245 38 93 180 
-0.00814509 -0.0203965 -0.0307223 39 43 145 
-0.00891483 -0.0203669 -0.0319508 13 31 126 
-0.0096845 -0.0203372 -0.0331793 22 8 117 
-0.00887591 -0.0205054 -0.0356684 42 16 113 
0.0125675 -0.0216588 0.0287162 248 248 248 
0.0101506 -0.0214253 0.0286385 255 255 255 
0.00773734 -0.0211918 0.0285667 215 225 228 
0.00698441 -0.0211628 0.027365 190 197 203 
0.00457674 -0.0209296 0.0273021 173 176 189 
0.00217283 -0.0206965 0.0272453 165 163 189 
0.0014236 -0.0206676 0.0260495 93 88 157 
0.000674367 -0.0206388 0.0248536 0 1 119 
-7.48634e-05 -0.0206099 0.0236578 0 0 102 
-0.000824094 -0.0205811 0.022462 5 7 100 
-0.00157332 -0.0205522 0.0212661 11 0 92 
-0.00232249 -0.0205234 0.0200704 13 2 88 
-0.00143194 -0.0206982 0.0177119 0 0 89 
-0.000545084 -0.0208729 0.0153474 0 0 94 
-0.00129801 -0.0208439 0.0141456 0 0 98 
-0.00205094 -0.0208149 0.0129439 0 0 102 
-0.00117153 -0.0209893 0.0105675 0 0 104 
-0.00192636 -0.0209602 0.00936282 9 0 110 
-0.00268114 -0.0209311 0.00815809 4 0 119 
-0.00343597 -0.020902 0.00695336 13 0 132 
-0.00256586 -0.0210761 0.00456214 0 0 136 
-0.00332248 -0.0210469 0.00335443 0 0 134 
-0.00407916 -0.0210178 0.00214684 3 0 132 
-0.00483584 -0.0209887 0.000939012 12 4 128 
-0.00397509 -0.0211623 -0.00146699 11 7 135 
-0.00473362 -0.0211331 -0.00267756 9 3 143 
-0.00549215 -0.0211039 -0.00388825 0 0 112 
-0.00625068 -0.0210747 -0.00509894 0 0 76 
-0.00539917 -0.021248 -0.00751984 18 0 65 
-0.00615954 -0.0212187 -0.00873351 0 0 54 
-0.00691998 -0.0211894 -0.00994718 0 0 48 
-0.00768036 -0.0211601 -0.0111607 0 0 60 
-0.00844073 -0.0211309 -0.0123744 53 72 158 
-0.00760043 -0.0213037 -0.0148132 54 66 192 
-0.00836265 -0.0212744 -0.0160297 58 52 144 
-0.00912493 -0.021245 -0.0172464 21 52 143 
-0.00829202 -0.0214176 -0.019697 30 91 145 
-0.00905615 -0.0213882 -0.0209166 91 136 177 
-0.00982028 -0.0213588 -0.0221361 86 164 210 
-0.0105844 -0.0213293 -0.0233557 99 164 213 
-0.0097608 -0.0215016 -0.0258212 36 140 210 
-0.00894094 -0.0216737 -0.0282926 64 119 206 
-0.00970876 -0.0216441 -0.0295181 59 63 165 
-0.0088945 -0.021816 -0.0319985 20 38 133 
-0.00966418 -0.0217863 -0.033227 28 13 123 
-0.0104339 -0.0217567 -0.0344555 39 13 111 
-0.0112036 -0.0217271 -0.0356839 162 147 179 
0.0166723 -0.0235287 0.0276287 197 209 193 
0.0142496 -0.0232914 0.0275421 249 252 251 
0.0101705 -0.0228463 0.0285918 254 255 255 
0.00775719 -0.0226093 0.0285201 216 229 231 
0.00534767 -0.0223725 0.0284544 189 197 198 
0.00294179 -0.0221359 0.0283946 168 156 158 
0.00219262 -0.022107 0.0271988 171 161 165 
0.00144339 -0.0220782 0.026003 119 22 79 
0.000694156 -0.0220493 0.0248072 25 0 104 
-5.50747e-05 -0.0220205 0.0236114 0 0 95 
-0.000804305 -0.0219916 0.0224155 0 0 87 
-0.00155354 -0.0219628 0.0212197 19 0 84 
-0.00230277 -0.0219339 0.0200239 11 0 84 
-0.00141209 -0.0221122 0.0176654 10 0 83 
-0.00216317 -0.0220833 0.0164665 0 0 80 
-0.00291425 -0.0220544 0.0152677 0 0 81 
-0.00203109 -0.0222324 0.0128973 0 0 83 
-0.00115162 -0.0224103 0.0105208 0 0 84 
-0.00190639 -0.0223812 0.00931609 0 0 89 
-0.00266123 -0.0223522 0.00811136 20 0 92 
-0.003416 -0.0223231 0.00690663 10 1 96 
-0.00417084 -0.022294 0.0057019 10 0 116 
-0.00330251 -0.0224715 0.00330758 4 0 126 
-0.0040592 -0.0224423 0.00209987 6 0 133 
-0.00481588 -0.0224132 0.000892162 20 0 138 
-0.00557256 -0.0223841 -0.000315547 27 5 132 
-0.00471359 -0.0225612 -0.00272465 30 13 130 
-0.00547212 -0.022532 -0.00393534 16 0 90 
-0.00623065 -0.0225027 -0.00514591 0 0 46 
-0.00537908 -0.0226796 -0.00756693 13 3 52 
-0.00613952 -0.0226503 -0.0087806 8 3 58 
-0.00689989 -0.022621 -0.00999427 0 0 43 
-0.00766027 -0.0225917 -0.0112079 0 2 46 
-0.00842065 -0.0225624 -0.0124215 71 88 138 
-0.00758028 -0.0227388 -0.0148604 89 115 172 
-0.00834256 -0.0227094 -0.0160769 44 88 161 
-0.00910479 -0.0226801 -0.0172936 5 70 153 
-0.00827187 -0.0228562 -0.0197443 51 85 160 
-0.00903594 -0.0228268 -0.0209639 49 92 155 
-0.00980008 -0.0227973 -0.0221835 72 128 185 
-0.0105642 -0.0227679 -0.023403 110 145 194 
-0.00974059 -0.0229436 -0.0258687 66 142 198 
-0.00892067 -0.0231192 -0.0283402 90 129 187 
-0.0096885 -0.0230897 -0.0295657 30 71 144 
-0.00887418 -0.0232651 -0.0320461 18 46 124 
-0.00964385 -0.0232354 -0.0332747 17 20 113 
-0.0104136 -0.0232058 -0.0345032 26 12 107 
-0.0111833 -0.0231761 -0.0357317 159 142 172 
0.0174527 -0.0249896 0.0287951 228 245 235 
0.0150282 -0.0247487 0.0287058 226 238 222 
0.0142696 -0.0247195 0.0274951 252 254 254 
0.0118508 -0.0244788 0.0274147 253 255 255 
0.00943559 -0.0242383 0.0273403 217 230 233 
0.00536746 -0.0237866 0.0284079 188 196 197 
0.00296158 -0.0235464 0.0283482 146 134 136 
0.00221235 -0.0235175 0.0271524 134 123 127 
0.00146317 -0.0234887 0.0259566 51 0 11 
-0.000935316 -0.0232488 0.0259088 0 0 65 
-0.00168264 -0.02322 0.024716 0 0 71 
-0.000784516 -0.0234021 0.0223691 0 0 77 
